# .PCD v0.7 - Point Cloud Data file format
VERSION 0.7
FIELDS x y z
SIZE 4 4 4
TYPE F F F
COUNT 1 1 1
WIDTH 1510
HEIGHT 1
VIEWPOINT 0 0 0 1 0 0 0
POINTS 1510
DATA ascii
-4.2631807 3.4691727 -1.8175582
-3.8304422 4.9403977 -1.7421138
-3.3335869 4.4071088 -1.7315981
-4.83745 4.1854677 -1.78636
-4.7250309 4.8769016 -1.7648855
-4.0663195 4.3012195 -1.7587705
-4.0776329 4.761126 -1.7473534
-4.2480965 3.9915309 -1.77771
-4.6070352 2.8299439 -1.9103413
-4.7222114 2.9335525 -1.9005152
-4.8380432 4.9593577 -1.7473031
-4.7734256 3.9553337 -1.7822495
-4.8277874 4.9800925 -1.7494234
-3.0100691 4.81143 -1.7265311
-2.9958978 3.4294274 -1.8029644
-2.8608878 3.5239568 -1.7965881
-3.6760402 2.8144505 -1.8878351
-3.8479025 3.8106232 -1.7883582
-4.7897115 3.5405724 -1.820043
-4.7011347 3.6139393 -1.8111973
-3.9692767 3.5411558 -1.8112476
-4.0374298 3.1476328 -1.853308
-2.9589307 4.5982184 -1.7427988
-3.0468762 4.918673 -1.7155528
-3.4333677 2.9986465 -1.8560606
-3.7875679 4.1063881 -1.7523687
-4.1038542 3.6165507 -1.8080512
-4.6410947 3.8250127 -1.7896404
-3.3680787 3.0555105 -1.8511721
-2.8788218 4.2596469 -1.744994
-3.2159169 3.9108994 -1.7782273
-4.4779282 3.560189 -1.7984532
-2.8861482 4.4236403 -1.740145
-4.8408608 3.1815684 -1.8561255
-4.8882289 3.136364 -1.8613964
-3.5245843 2.9253206 -1.8658372
-3.5589471 4.6316428 -1.7334573
-4.7325416 4.5803528 -1.7645086
-3.1757071 3.5871022 -1.8103608
-3.4502931 4.2929707 -1.7566352
-3.6574697 4.1976199 -1.745878
-3.4658234 3.3874364 -1.8333116
-4.9094915 4.9077511 -1.7510133
-3.4834733 4.6839304 -1.7322224
-2.9269674 4.6119223 -1.7408222
-4.0429339 3.9261599 -1.7692447
-4.8926954 4.9217772 -1.7504833
-3.4489334 2.9491386 -1.8927757
-4.0422482 2.7909508 -1.9086727
-3.6812468 3.3317235 -1.8280953
-3.094157 3.7685311 -1.7922301
-2.9901345 4.6109557 -1.7212131
-3.9250653 3.3931189 -1.8263342
-3.471545 2.9309547 -1.8952671
-3.0621867 3.7778525 -1.7869998
-4.3817039 3.0154634 -1.8765948
-3.8697159 3.2686987 -1.8319832
-4.5051289 4.7461405 -1.7521755
-3.3884611 3.4389284 -1.8256614
-2.8803196 3.8790691 -1.7742976
-3.463145 3.7447739 -1.7925875
-3.7154469 3.7355773 -1.7924176
-3.4551544 3.9277668 -1.7784693
-2.876498 4.0918226 -1.7545331
-2.834775 3.3955774 -1.7957704
-4.5131145 3.2446771 -1.8399673
-3.0963709 3.4996262 -1.8071672
-4.0483909 3.8748877 -1.7902379
-3.0354259 3.2148905 -1.8396224
-3.9845712 3.5324192 -1.8133397
-3.7251763 3.8917146 -1.7781724
-3.2159331 4.8281369 -1.720492
-3.0150805 3.4296896 -1.8085438
-4.9303389 4.8977604 -1.7531334
-3.8506272 4.0707841 -1.7582105
-3.2401404 4.0662723 -1.7666136
-3.5030048 4.5326858 -1.7442226
-3.7162635 4.1583524 -1.7491236
-2.9280736 3.3227677 -1.7982146
-4.3609896 4.5587883 -1.7595793
-4.8537574 4.7790217 -1.770879
-4.3907876 3.188102 -1.8509996
-4.204752 3.5104821 -1.8107673
-3.6324794 4.4639044 -1.7530683
-3.4379621 4.3052697 -1.7572942
-3.7051284 3.1922581 -1.8516725
-3.375916 3.9739685 -1.7721927
-3.8470697 4.3109183 -1.7606503
-3.1911402 3.2921071 -1.8165144
-3.1549451 3.3166907 -1.8133262
-4.9193339 3.8347218 -1.794214
-4.3480344 4.3000937 -1.7559268
-4.6578031 4.3341088 -1.7758806
-3.719491 3.0454071 -1.8641664
-3.9930835 3.173898 -1.8459544
-3.4226525 3.7717426 -1.7897155
-4.9455409 4.1052766 -1.7956752
-3.7020164 4.7638597 -1.7302027
-3.734874 3.7081764 -1.7903253
-4.5811825 3.0387251 -1.8775009
-5.0124798 3.3182216 -1.8383663
-3.5995128 3.0257423 -1.8675259
-3.6403639 3.2270525 -1.8409621
-3.1442747 3.1472116 -1.8520802
-4.3139586 3.0699425 -1.8672607
-3.4436688 3.615334 -1.8033051
-4.3882184 3.6376736 -1.7913133
-4.8715096 4.7664294 -1.7719686
-4.8646193 3.6262212 -1.8069274
-4.4627662 3.826221 -1.7941377
-4.7124653 3.5991516 -1.8111973
-3.6094191 2.8730729 -1.8805021
-3.9408901 3.1495793 -1.8602242
-4.6499228 3.1472089 -1.8603393
-3.6090674 3.2399273 -1.8348416
-2.9474146 4.8456225 -1.7252674
-3.3059781 4.0177832 -1.7680082
-2.8123095 3.8029931 -1.7851146
-4.5996718 4.992692 -1.7643408
-4.2140169 3.0073493 -1.8761032
-4.4613042 4.4768887 -1.7630725
-3.0178423 3.5434146 -1.7993588
-3.4894857 3.3256688 -1.8226012
-3.1203234 4.1378155 -1.760337
-2.836513 4.8850513 -1.7176855
-4.1034756 4.1186624 -1.7726552
-3.6366386 3.7967832 -1.7882333
-4.5549631 3.231395 -1.8494741
-4.1249766 3.3881068 -1.8182214
-4.0601621 4.7710104 -1.7461891
-3.7316506 2.7740982 -1.8967968
-2.8392317 3.9000673 -1.7713087
-2.9594057 4.9496412 -1.7093788
-4.9189997 4.7229619 -1.7730584
-3.9520106 3.373209 -1.8292062
-4.9425321 3.1318765 -1.8432397
-3.3536716 3.4574347 -1.8210713
-3.7527277 4.5058241 -1.7408659
-3.4548149 4.1090522 -1.7713819
-3.0046043 4.6015391 -1.7212131
-4.0014911 4.1968651 -1.7676005
-4.0849557 3.8611059 -1.7961679
-4.953969 4.0860863 -1.7939284
-3.2430871 3.6709137 -1.8011962
-2.8658996 3.8851247 -1.7728031
-3.7890451 2.8827441 -1.8930315
-3.1018753 3.2121136 -1.8145092
-3.3533456 4.9579172 -1.7152469
-3.7642529 4.1328912 -1.753667
-3.4091623 3.1609776 -1.8444114
-4.8075337 3.2249322 -1.8548077
-3.1490111 4.4955759 -1.7500464
-3.5276084 4.0641842 -1.7761353
-3.537945 3.2985055 -1.8294865
-4.4592099 3.3025904 -1.8365718
-3.8023777 2.9951274 -1.8782209
-4.5711393 4.417161 -1.7741342
-2.9438536 4.9765954 -1.7143179
-3.445044 4.9086394 -1.7188364
-3.0673552 3.380542 -1.8077469
-4.9988818 3.3318331 -1.8371025
-3.6802919 3.4289618 -1.8180118
-4.0932646 4.2755852 -1.7587705
-4.7286711 3.9939582 -1.779258
-4.5630674 5.0001478 -1.7588924
-4.6536827 3.6595128 -1.8080381
-4.4221611 3.566853 -1.8172518
-3.1519127 4.1256037 -1.763824
-3.792064 3.2622116 -1.8430392
-2.8296549 3.3260641 -1.8147068
-3.0978684 4.305882 -1.7482934
-4.9051323 4.4437852 -1.7740389
-3.1359627 3.8205092 -1.7834512
-4.4983449 2.9216151 -1.893827
-4.1112752 4.1135602 -1.7732872
-4.1586366 3.1921434 -1.8471563
-3.4225519 3.008219 -1.8552457
-3.1607375 3.1539021 -1.8595546
-4.7299213 3.3308656 -1.8205217
-4.1579509 4.0826426 -1.777078
-4.7243299 3.7462611 -1.7945795
-4.3880081 3.5849571 -1.8119808
-2.8987236 4.8682818 -1.7233721
-2.8607366 3.9689851 -1.7635972
-4.248013 4.6409254 -1.7543397
-5.0088911 4.3411651 -1.776842
-3.6670465 4.1598473 -1.7698127
-4.6076317 3.1823964 -1.8549064
-4.7925072 4.5231676 -1.7656299
-4.0071015 4.3331509 -1.753214
-4.3627362 4.8489814 -1.7460088
-4.9809842 3.3653145 -1.8383663
-3.4695811 4.5630894 -1.7454863
-3.3822844 4.9335938 -1.7140503
-4.3677869 4.8392615 -1.7448876
-3.1668365 3.9387789 -1.7746375
-4.2832732 3.2666423 -1.836354
-3.2594538 4.4528422 -1.7290021
-5.0186343 3.0450931 -1.8831395
-3.6124489 3.4061956 -1.8280953
-4.1564021 4.4464855 -1.7469536
-4.246984 2.9173288 -1.9035614
-2.9019074 4.976964 -1.7075266
-4.169508 3.8139307 -1.7744375
-3.4878492 4.6593041 -1.726666
-5.0011563 4.8448467 -1.7568436
-3.9334824 3.2181785 -1.8386012
-3.1634779 4.5122929 -1.7264056
-4.898067 3.6034303 -1.8112491
-2.9049449 3.4877276 -1.7965881
-3.0203621 3.219074 -1.8363003
-3.0980039 3.6350188 -1.8042405
-3.1612265 3.7173209 -1.7937245
-4.3465247 3.3917525 -1.8236696
-3.508646 4.0681524 -1.7727399
-3.3736053 3.1775341 -1.8380347
-4.4071984 4.2504387 -1.7583199
-3.7113333 3.0582395 -1.8649472
-4.705862 4.3102593 -1.7817026
-4.2523198 3.2854176 -1.8314722
-3.2346179 4.6818967 -1.7315857
-3.6700861 2.828198 -1.8894643
-4.5352654 3.4624932 -1.8258171
-4.1616979 3.8308349 -1.7763846
-3.9838526 3.9673529 -1.7647011
-3.4174006 4.5833764 -1.7404317
-3.9091156 4.0172915 -1.7588596
-3.7157364 3.5539596 -1.8083839
-3.2364902 4.2264023 -1.7550843
-3.2091079 3.2899868 -1.8212967
-3.2209027 4.2335663 -1.7537262
-3.499012 4.2940493 -1.736142
-3.3372667 4.62568 -1.7360088
-3.6206741 4.2219248 -1.7439308
-3.4564445 3.7611067 -1.7954597
-3.1073511 3.4898806 -1.8071672
-3.5815692 2.8454335 -1.909386
-5.0447302 3.2829194 -1.8408936
-3.6945882 3.0640466 -1.8610431
-4.3790455 4.2767067 -1.7577217
-4.1398873 3.8349354 -1.7718412
-3.948385 3.5560374 -1.8091552
-4.6527276 3.3484352 -1.8350415
-4.8503842 4.4780469 -1.7689936
-3.5532768 3.4359303 -1.819129
-3.8225806 2.9723003 -1.879002
-4.9792523 3.7818873 -1.7989998
-4.981781 2.8907025 -1.9126269
-3.2901585 4.2134366 -1.7632331
-4.6268549 3.0067306 -1.8851725
-3.3194697 3.0787795 -1.8422099
-3.8284976 4.3172817 -1.7581229
-3.7806449 4.0775065 -1.7750838
-3.2128649 4.0711555 -1.7617317
-4.4710712 3.5145237 -1.8192284
-4.9830799 3.1028893 -1.8497303
-2.9717462 3.4673054 -1.8085438
-4.926724 4.115912 -1.7933464
-4.799058 5.0131226 -1.7504833
-3.077569 3.3811741 -1.810935
-4.386363 2.8044267 -1.9252303
-4.0176854 3.4947095 -1.8133397
-3.7194514 3.3030043 -1.8318312
-4.3101902 4.3164768 -1.7511411
-3.1575389 4.7273784 -1.7296904
-3.6813445 4.5349669 -1.7334573
-4.4736433 2.945745 -1.890955
-3.8506672 3.2189207 -1.8497638
-3.1985652 3.6901536 -1.7952188
-3.0400205 4.5495577 -1.7441167
-4.4735618 2.7963746 -1.915076
-4.1917353 2.9577239 -1.8945951
-3.3110662 3.619782 -1.8041852
-2.9110994 4.8542552 -1.7214766
-3.6155505 2.8594689 -1.8788728
-3.3044186 3.7181892 -1.7959518
-2.8000338 3.9893391 -1.7562438
-4.3525863 2.8947482 -1.8959572
-3.903976 3.7937584 -1.7985444
-3.7663214 4.7229519 -1.7325957
-4.6421628 3.6741149 -1.8080381
-4.4596844 2.9567125 -1.8888011
-4.142518 2.9820311 -1.8841345
-4.7314267 4.2793288 -1.7811204
-3.9711587 4.2177625 -1.7657051
-3.4183509 3.634176 -1.8018343
-3.4231019 3.1540034 -1.8468025
-4.2227516 3.7356 -1.8020976
-4.7800822 3.5567405 -1.8206748
-4.4363813 3.9841979 -1.7729706
-4.6329489 4.3383031 -1.7712231
-4.3180532 3.9439371 -1.7840284
-3.4367766 4.3416066 -1.7354927
-3.3875229 4.7233858 -1.7241963
-3.6329086 2.8034744 -1.9160303
-3.9928956 3.1196737 -1.8691907
-4.0792208 3.4372454 -1.8168268
-4.4574685 2.8254311 -1.9158113
-3.0149117 4.9361005 -1.7149354
-3.8034391 3.886652 -1.796507
-3.607759 4.4619665 -1.7473818
-5.0489812 3.0203366 -1.8877515
-3.9141743 4.6186876 -1.7367835
-3.7050045 3.74857 -1.793115
-2.8569727 4.6289983 -1.7329156
-4.6123738 3.8625603 -1.7902577
-3.4410236 2.9611535 -1.8936061
-4.8037863 3.6877177 -1.803223
-3.8362586 3.2274418 -1.8475223
-4.3584886 4.0525188 -1.7692664
-3.2574606 3.8861134 -1.7810993
-3.3375268 3.8324337 -1.7854075
-3.263047 3.252106 -1.8260791
-3.9536331 3.2140689 -1.8437485
-3.6465683 3.0926507 -1.8532351
-4.9897122 3.092257 -1.8831395
-3.2919028 4.4383311 -1.7315981
-4.0252023 3.6844156 -1.8032979
-4.9016595 3.5824461 -1.8081622
-3.2404268 3.8906157 -1.7782273
-2.8980052 3.6161575 -1.7907701
-3.9239194 3.1765976 -1.8617189
-4.7050781 3.755182 -1.7914925
-3.1340435 3.3364489 -1.8133262
-4.3697453 3.6160874 -1.8139576
-3.522419 2.942193 -1.8699106
-3.7006567 4.1671886 -1.7478251
-4.0094366 3.6932399 -1.8012605
-3.4575009 4.5770063 -1.74675
-4.0726724 3.4537015 -1.8189188
-3.5504818 3.4547975 -1.8236121
-3.280668 4.0384755 -1.7680082
-3.320533 3.3190262 -1.8165368
-4.292594 2.8698699 -1.9080446
-2.8215654 4.2753477 -1.7380201
-3.0841384 3.5079596 -1.8063862
-3.013288 4.1979547 -1.7547575
-4.8345885 3.9046805 -1.7870352
-3.4655144 4.3356671 -1.7400362
-2.8503666 3.889637 -1.7705616
-4.978128 3.1215243 -1.8516777
-4.7930474 3.2528665 -1.8231182
-3.318548 3.7105761 -1.7974225
-4.2119255 3.1496282 -1.8536186
-2.9266622 4.39468 -1.7394656
-3.6219728 3.2310479 -1.8363719
-2.8317294 4.6533289 -1.7355512
-4.8320875 4.489326 -1.7673117
-4.4726043 4.7715416 -1.7510542
-3.1426728 4.7372742 -1.7296904
-3.1753159 3.7101777 -1.7952188
-2.9394081 3.8438334 -1.7772863
-3.463764 4.2821093 -1.7566352
-3.7111108 4.130744 -1.7724483
-3.1848071 3.1559083 -1.8226565
-3.7594278 3.3727255 -1.8261006
-4.3274436 2.844157 -1.914022
-3.0989108 4.7682791 -1.7303222
-4.315383 2.8557065 -1.9125278
-3.4151943 3.4228301 -1.8287214
-3.6527777 3.6053636 -1.8047938
-4.2768126 3.7307208 -1.7828757
-2.8170953 4.6622028 -1.7355512
-4.2198296 3.3027713 -1.825893
-3.1296465 4.5243282 -1.7231605
-4.1900349 3.153923 -1.8478744
-4.3661108 3.3849552 -1.827744
-3.5232875 3.5508997 -1.806982
-3.9714916 3.9349089 -1.7856258
-3.8664932 3.2115202 -1.8527527
-2.812005 3.6834304 -1.7907701
-3.9874868 4.5580797 -1.7373817
-3.8901772 3.2443197 -1.8319832
-2.9848559 3.6976657 -1.7942951
-3.5842335 3.422456 -1.8243593
-4.8167953 4.8026557 -1.7681547
-4.6399083 4.942131 -1.7616165
-3.6075852 3.814085 -1.7854434
-3.0822012 3.8401926 -1.7760978
-4.1965942 3.5260828 -1.8121257
-3.9664514 3.1293221 -1.8632133
-4.6375418 4.9707031 -1.767065
-3.3640249 3.8141751 -1.7868437
-4.176352 2.9666102 -1.8916066
-2.8679783 3.3075383 -1.8196899
-3.1813438 3.7779424 -1.7819804
-3.216872 3.2772565 -1.8197025
-4.6402745 3.4005344 -1.8094876
-3.8679373 3.8063955 -1.7924327
-3.8249745 4.0948973 -1.7582105
-4.5566163 3.4562643 -1.8304293
-3.6390896 3.3777192 -1.8280953
-4.6310959 3.4162102 -1.8101367
-2.8135805 3.9163291 -1.7705616
-3.4550462 3.524307 -1.8161403
-2.9907298 4.0346766 -1.7624314
-2.8764484 4.6280427 -1.7362101
-4.6741071 3.1315002 -1.8644134
-3.4005275 4.7257552 -1.7272834
-2.9404531 4.3854647 -1.7394656
-4.3706703 3.0281579 -1.8758768
-3.3484869 3.9922161 -1.7707981
-4.8850737 4.7497663 -1.7714238
-3.030895 4.5669785 -1.7474109
-3.6457248 2.9872932 -1.8723081
-4.9066653 2.9512761 -1.9004041
-2.9501176 3.3056602 -1.7990292
-3.2093832 4.7084193 -1.7341132
-3.8166537 4.6946764 -1.7355869
-3.540226 4.2388158 -1.7619064
-3.0264466 3.8065445 -1.7869998
-3.320534 3.3398294 -1.8227835
-2.9184983 4.9694591 -1.7081439
-3.6262991 4.8050203 -1.7260151
-4.056459 3.8582258 -1.7882613
-3.1892903 4.7105985 -1.7309541
-3.9409497 3.9993579 -1.7621051
-4.2905869 3.0737648 -1.8607986
-2.9582238 3.2640021 -1.8321476
-4.1585259 4.9877763 -1.7375998
-3.0412571 3.5257699 -1.8001397
-4.9332237 2.9251487 -1.9037992
-4.4406996 4.2292733 -1.7613111
-3.3193538 3.226275 -1.8356436
-4.0545969 4.5190191 -1.7421675
-3.8583651 3.6316698 -1.803576
-3.9303606 2.8908374 -1.8946182
-2.9580231 4.624886 -1.7192661
-4.7872953 3.9415381 -1.7828476
-3.6079278 2.8296587 -1.914369
-3.5796525 4.4845467 -1.7473818
-4.6406603 3.3619206 -1.8343825
-4.7624245 2.89677 -1.9060944
-2.8811634 3.5263686 -1.8029644
-3.5558949 3.2736928 -1.8279564
-3.1011953 4.5172448 -1.7467521
-4.2050328 3.3125095 -1.8238007
-3.2060339 4.8461251 -1.7235789
-5.0409064 4.3275638 -1.7813267
-4.9350276 3.4023554 -1.8326797
-4.9845338 4.8591847 -1.7563136
-3.8469884 4.0332603 -1.7796959
-4.3908987 4.031456 -1.7723532
-3.1532726 3.9472568 -1.7739192
-4.4389024 3.1597106 -1.8593684
-3.7428663 3.0254264 -1.8665088
-3.8673282 4.0627604 -1.7601577
-4.3469582 3.9205596 -1.7859238
-3.8438697 2.9598312 -1.8829058
-3.9840004 3.3149748 -1.8241801
-3.8314209 3.6519396 -1.801484
-4.0600219 3.9057589 -1.7685957
-3.6381152 4.4421573 -1.7486455
-4.805469 3.0259719 -1.8834275
-3.7107947 2.944586 -1.8826698
-4.0340614 4.5245848 -1.7391763
-3.1036952 3.367193 -1.8141232
-3.2520733 5.0090065 -1.7110591
-4.2330551 3.721061 -1.8014388
-3.2782941 3.0987053 -1.8348776
-3.523833 2.8908818 -1.9019114
-3.6285007 2.8091774 -1.9160303
-3.0811229 3.7768011 -1.7914829
-3.6540263 3.9892614 -1.7863212
-3.90748 3.2380536 -1.8356599
-3.326798 3.4730721 -1.8180109
-4.4388094 4.4965053 -1.7624904
-3.9956484 3.5198846 -1.8133397
-4.8213363 3.494153 -1.8194112
-4.0603833 3.4652541 -1.8182214
-3.267921 4.409894 -1.7500464
-4.204999 4.6670651 -1.7514287
-3.8972392 2.7949369 -1.9081756
-4.3280916 3.4213142 -1.8250279
-2.8532333 3.5372288 -1.7989792
-3.826467 3.0930083 -1.8639128
-4.4250846 3.8668554 -1.7935058
-4.3998642 2.793592 -1.9274716
-2.923692 3.4768219 -1.7981821
-4.904953 4.1240163 -1.7898532
-4.5929632 3.1936567 -1.8528694
-3.8321526 2.8590581 -1.9017993
-3.9558442 3.7369039 -1.7978654
-2.9987199 3.5547957 -1.7977974
-4.2132926 2.9334321 -1.8960898
-3.1748762 3.1658995 -1.8226565
-3.1750228 4.4726124 -1.7487288
-4.0722718 3.8929851 -1.7685957
-3.9153173 2.8988192 -1.8914949
-3.3680689 3.4614811 -1.8264264
-3.2851164 4.6605396 -1.7353768
-3.7214622 2.9340563 -1.8834671
-4.2421207 4.3701029 -1.7481499
-2.9514668 4.0611796 -1.7617133
-2.8351631 3.6539896 -1.7868659
-3.3533719 3.6791346 -1.7974225
-3.6945155 3.7615364 -1.7938124
-3.3052747 4.7651052 -1.7198744
-3.6084757 4.5907412 -1.7328399
-5.0122566 3.0628283 -1.884457
-3.1720741 4.0982785 -1.760337
-2.9102569 4.6461649 -1.7166696
-3.7947278 4.6977057 -1.7319976
-3.7700062 3.3608968 -1.8261006
-3.4263484 3.5393155 -1.8124044
-4.4261427 4.8120623 -1.7504936
-4.7098036 2.9463704 -1.8991207
-4.9639945 4.7064676 -1.7790517
-4.1131649 5.0128379 -1.7347968
-3.9637089 3.5473871 -1.8112476
-4.8575401 3.8730307 -1.786437
-4.6606855 3.6413517 -1.8061426
-2.8350489 3.7837627 -1.7843497
-4.2498064 4.1554718 -1.7667966
-4.7165389 4.292891 -1.7805383
-4.8795333 3.4552736 -1.827625
-3.6849444 3.0756373 -1.8610431
-4.5247574 3.5282366 -1.8042951
-2.8517401 3.768882 -1.7835845
-3.6907973 2.9666855 -1.8818728
-3.5215411 3.1823537 -1.8383996
-4.0487132 3.2624621 -1.830642
-4.3362212 4.5902543 -1.7613261
-3.8602648 3.455477 -1.823462
-4.2647595 3.9820673 -1.7796055
-3.3242235 3.2107046 -1.8324554
-3.6621718 2.9816558 -1.8762935
-4.9915323 3.3496494 -1.8383663
-3.7486079 4.0941863 -1.7717893
-3.010354 3.6817124 -1.7958252
-2.8582964 4.4416871 -1.740145
-4.0132494 3.0751791 -1.8647075
-5.0229425 4.3395963 -1.7796448
-3.9394357 4.2370486 -1.7631778
-3.9820087 3.7145278 -1.7992234
-3.0679052 4.1488862 -1.751968
-3.3535471 3.0165114 -1.8803178
-3.5689504 3.5076554 -1.8077172
-3.5075397 2.9485755 -1.8666521
-3.6077724 4.8117933 -1.7242203
-4.4961505 2.7811801 -1.9194877
-2.7995446 4.6661577 -1.7335746
-2.9091287 3.866801 -1.7772863
-4.4901967 4.7602692 -1.7521755
-4.0938845 3.6306679 -1.8087302
-4.2108302 2.7835963 -1.9167002
-3.7705255 3.2644541 -1.8370616
-3.9193056 2.7829609 -1.912958
-4.5201058 4.1584053 -1.7643023
-3.2933671 3.0933619 -1.8381364
-4.1367264 3.19612 -1.8414123
-3.3445995 3.81634 -1.7825356
-3.7674229 3.6938684 -1.7952071
-4.8129406 3.2066517 -1.8528312
-4.8103938 2.8643208 -1.9151608
-4.1694021 4.0682292 -1.7764462
-4.0691829 3.257843 -1.8356683
-2.8133917 3.661495 -1.7837427
-4.7515216 4.8430114 -1.7632509
-4.5391779 4.4417949 -1.7723874
-3.3196707 3.4875429 -1.8203061
-2.850651 4.6807585 -1.7160206
-2.9444993 4.6357489 -1.719915
-3.9631138 2.9931612 -1.8830386
-4.9482255 4.3986402 -1.7745994
-4.7418284 3.267833 -1.8442657
-2.8938591 3.7506528 -1.7881747
-4.5828071 2.8549168 -1.9074693
-3.3311884 4.770246 -1.7260485
-4.1251855 3.2079632 -1.8406944
-3.1523099 4.4701772 -1.7434577
-3.8789654 4.6656818 -1.7409712
-4.6247253 4.0706758 -1.7702847
-4.6403384 2.8003712 -1.9153674
-3.2631183 3.0770998 -1.8686906
-3.1857877 4.4579897 -1.7467521
-3.4357517 3.7623425 -1.7904336
-3.8138762 3.102668 -1.862383
-4.1081104 3.6088655 -1.8073722
-3.4050326 4.3193436 -1.7539996
-3.1305871 4.4992261 -1.7474109
-3.9847932 2.9704266 -1.8845688
-3.2101426 3.6800864 -1.7952188
-3.2989447 4.3938203 -1.7520231
-4.1008883 3.8275936 -1.7922145
-4.894166 3.1620243 -1.8679854
-4.4246316 4.0114174 -1.7760576
-3.5118032 3.3155665 -1.8264264
-4.8753319 4.1648855 -1.7910175
-4.222775 3.7662449 -1.7770337
-3.5042076 3.206887 -1.8399612
-4.3097701 2.9350486 -1.89081
-4.2415633 4.3971992 -1.7541323
-4.9457388 3.567064 -1.8168057
-3.5042062 2.9117949 -1.901081
-3.6364064 4.2133813 -1.745229
-4.7840624 3.2529376 -1.85349
-3.9493427 3.9624722 -1.7869434
-4.7744198 4.2370753 -1.7822847
-3.6850924 4.5686393 -1.7427181
-3.032505 4.0244279 -1.7688932
-3.424861 2.9659543 -1.8894535
-3.8819008 3.4311538 -1.823462
-2.9489553 3.9201896 -1.7687445
-3.2188184 4.470654 -1.7257566
-4.1899743 3.3435707 -1.8265904
-3.8160503 4.4523225 -1.7408659
-2.9726708 4.359138 -1.7381076
-3.7516065 2.9103999 -1.8874522
-4.2869878 3.0915658 -1.8636706
-3.0839169 4.7779908 -1.7303222
-4.1104617 4.4812231 -1.7451587
-3.7843678 3.1182909 -1.8570276
-4.9117651 2.7907043 -1.9339906
-4.1462317 3.5736518 -1.8094093
-3.5315518 3.0741498 -1.8587581
-4.3631477 3.2100372 -1.8475127
-3.6239932 4.1899209 -1.7678362
-4.6583238 4.6231675 -1.7577815
-3.3414574 3.0603142 -1.8438396
-3.2964346 3.506978 -1.8195411
-3.4068959 3.9598131 -1.7756798
-3.582453 4.2081485 -1.7632239
-3.5422134 3.688211 -1.7976136
-3.9629643 3.1907067 -1.8408072
-4.9580188 2.8978631 -1.9065155
-2.9799051 3.276365 -1.7982146
-4.2130189 4.0340266 -1.7789736
-3.3673561 3.4389377 -1.8195411
-4.6555376 2.7895865 -1.9182396
-4.6872807 4.5938067 -1.7577815
-2.9672463 4.5793624 -1.7388456
-3.0052092 3.8044374 -1.7810222
-3.6781619 4.1946082 -1.7497725
-4.1381664 3.790055 -1.7928734
-4.6176071 4.0902705 -1.7726777
-3.0526459 3.7903316 -1.7884942
-4.4982615 3.8079646 -1.7991924
-4.0172753 2.8299768 -1.9094535
-4.097156 3.430465 -1.8203138
-4.2866678 2.9588771 -1.8886039
-2.8303921 3.9792747 -1.7599204
-3.1006925 3.1825423 -1.8495886
-3.4926555 2.9548926 -1.8633929
-4.4259171 3.1714423 -1.8579736
-3.364913 3.668582 -1.7974225
-4.0549521 2.9152586 -1.8945142
-3.0673857 4.9171228 -1.7186399
-3.3979552 3.4269457 -1.8248965
-3.8900697 4.0022655 -1.7823313
-3.7727597 3.8797882 -1.7870002
-4.6222968 2.8193126 -1.9132133
-3.5960808 2.8809955 -1.8780581
-3.7025633 3.1697192 -1.8447871
-4.6715193 4.0344286 -1.773874
-3.8041062 3.492413 -1.8170002
-2.9708295 3.2870584 -1.7990292
-4.3140068 4.347683 -1.758918
-3.7340019 3.2949629 -1.8340727
-4.8505754 4.1702495 -1.78636
-3.4333963 4.1098218 -1.7666285
-4.6087656 4.9711862 -1.7616165
-3.9111841 3.9736888 -1.7803547
-3.8881063 4.4225202 -1.7488924
-4.1990271 3.7927032 -1.7770337
-3.7619433 4.9639764 -1.7351276
-3.8010423 3.8600092 -1.7890376
-3.8420668 3.2868657 -1.8283066
-4.0199161 3.896286 -1.7882613
-3.2361319 3.2659914 -1.8220937
-3.8643789 4.3030629 -1.7625458
-4.6736746 3.3191347 -1.8350415
-3.7770703 2.8923864 -1.8914374
-4.4617 3.9815848 -1.7785271
-4.2433085 4.6504078 -1.755504
-4.0591488 4.5097971 -1.7409712
-4.3053002 3.6664224 -1.8080275
-3.3291252 3.0683365 -1.8422099
-3.1460221 4.5175672 -1.7244586
-2.9378221 3.5957813 -1.794674
-3.5489626 2.8744497 -1.9060639
-4.9544125 3.0918071 -1.8725973
-4.8275805 3.2320943 -1.8289596
-4.3321843 4.876297 -1.7460088
-3.4392457 3.4039187 -1.8302515
-4.1671553 3.1779385 -1.8464384
-3.4822595 3.217155 -1.8360571
-4.0895715 3.2322121 -1.8356683
-3.1425936 3.4631534 -1.8087287
-3.5607755 4.2363791 -1.7658596
-3.7115495 4.9946175 -1.7333808
-3.3771088 4.7401834 -1.726666
-3.8423927 4.92383 -1.7403672
-4.0803504 3.876282 -1.7666485
-3.6853535 3.1953566 -1.8463173
-3.8325849 4.6841455 -1.7361851
-3.9251709 3.1573226 -1.8572357
-3.8025386 4.3426847 -1.758755
-3.8992765 3.6015363 -1.8070631
-4.2405038 3.2976024 -1.8307749
-3.1678703 3.3094285 -1.8149204
-2.8341331 3.5361106 -1.7933998
-4.466846 4.1877093 -1.7583199
-3.0462158 3.666523 -1.8004154
-4.1208501 3.5971725 -1.8080512
-3.0830097 3.6404831 -1.8019452
-4.0141215 3.9475243 -1.7672976
-4.10642 3.234966 -1.8414123
-3.5162871 4.6664944 -1.7340746
-4.2255502 2.9222763 -1.897584
-3.0300074 3.6703486 -1.7973552
-3.4957116 3.7092638 -1.7911518
-3.7318754 4.7405043 -1.7302027
-3.481957 2.9646749 -1.8625783
-4.4988976 4.4581575 -1.7671478
-4.0421834 4.1603332 -1.7682323
-3.5891881 3.1423161 -1.8485502
-3.404974 3.26701 -1.8266875
-3.6776526 3.3494825 -1.8318312
-4.4193525 2.8402095 -1.9062519
-2.9580324 3.2936716 -1.7973999
-3.8399282 3.826659 -1.7903956
-4.6394181 2.9942281 -1.8865672
-3.7719197 3.0098341 -1.8719743
-4.8478303 3.6612749 -1.809397
-5.0212994 3.3014076 -1.8377345
-3.3893681 3.2726038 -1.8235642
-4.8399644 3.4845669 -1.8225703
-5.0080314 2.8639774 -1.9160224
-3.7821975 4.4836049 -1.7414834
-3.394042 2.9956772 -1.8877925
-4.6252999 4.6778293 -1.7622662
-3.3916757 3.7971201 -1.7889977
-3.2648439 3.6490881 -1.8004491
-4.915525 3.1322327 -1.8686441
-4.3879619 3.8832083 -1.7878194
-3.620836 3.8040955 -1.7861408
-4.1360717 3.3864021 -1.8210112
-2.9604564 4.9689527 -1.7149354
-4.6554127 4.9275284 -1.7616165
-3.4407499 3.3839767 -1.8248965
-3.9874074 4.822053 -1.7438602
-3.4615417 4.8993568 -1.7194345
-3.4284797 3.6220615 -1.8010991
-3.1883662 4.0927467 -1.7624291
-4.2551827 3.4849186 -1.818916
-3.8596406 4.0211539 -1.7796959
-3.0807893 3.3633301 -1.8061527
-3.4580901 3.1265531 -1.8499908
-3.8776443 4.0607662 -1.7621051
-3.7204282 4.3858972 -1.7518046
-2.9076128 4.3960347 -1.7360705
-3.8025448 3.3155534 -1.8238944
-3.9417851 4.8594184 -1.7438602
-3.3630078 3.0059602 -1.8803178
-4.2461691 3.7512889 -1.7796301
-4.3691068 3.9157922 -1.7903467
-3.3561885 4.355021 -1.7533408
-4.7413945 4.5601172 -1.7622662
-2.8969662 3.8759212 -1.7772863
-4.6194448 3.3910127 -1.8343825
-4.5859675 3.4108989 -1.8291116
-3.5569189 4.0335412 -1.7747769
-3.4588506 3.6085446 -1.8055111
-3.2188256 4.6904664 -1.7309541
-3.3595374 4.6259565 -1.7404317
-4.1557336 4.7007742 -1.7490999
-2.9982493 3.4541345 -1.8117321
-4.9917331 3.5057204 -1.8174231
-4.3655887 4.290442 -1.7577217
-4.890069 3.1855326 -1.8380468
-3.375088 3.2794077 -1.8212217
-4.8603292 4.9510417 -1.7499532
-4.0814228 3.0465469 -1.8796513
-3.3087227 3.3489428 -1.8220025
-3.6835537 4.7709184 -1.7284081
-3.952168 4.8411012 -1.7415314
-2.8819196 3.3026457 -1.8221815
-3.1495166 4.2916074 -1.7550843
-2.870579 4.9950991 -1.7075266
-4.7015619 3.1072199 -1.8678087
-4.1406684 3.0004351 -1.8878706
-3.225112 4.4389644 -1.7493876
-3.3535736 3.1986685 -1.8380347
-3.5779111 3.1523662 -1.8477695
-4.5765457 3.7165239 -1.7998242
-2.9743736 3.708472 -1.79506
-4.568306 4.9901457 -1.7578025
-3.3966689 4.1183038 -1.7605166
-3.6524422 3.9626148 -1.7788514
-3.0563908 4.5431294 -1.7454343
-3.2035754 3.1446824 -1.8251007
-4.7382827 3.9766171 -1.7780616
-3.3962507 4.584909 -1.7366406
-5.0298343 4.6502233 -1.7817761
-4.266696 2.9648471 -1.8834567
-3.7608941 4.746769 -1.7373817
-3.1845777 3.3061001 -1.8189056
-3.3427937 3.467953 -1.8210713
-2.8722377 4.4326849 -1.740145
-3.7901175 4.3560462 -1.7593867
-4.8714757 4.4693031 -1.7717963
-3.3869507 4.3383298 -1.7553176
-3.504523 3.4751117 -1.8161403
-3.8521986 4.6630797 -1.7349888
-3.4885578 3.1145978 -1.856367
-3.3968737 4.3752933 -1.736142
-3.6972902 4.400465 -1.750541
-4.9373732 3.8239472 -1.796607
-3.7870455 4.0715623 -1.7750838
-3.8697011 3.4420989 -1.8227441
-3.5563352 3.0567141 -1.8619463
-4.0139375 2.9434407 -1.8876289
-3.6491549 3.4647825 -1.8187473
-3.2006342 3.5698433 -1.8118908
-3.4812872 3.740675 -1.7961776
-3.2441733 4.08462 -1.77289
-4.8347845 3.6753423 -1.8087796
-4.1246762 5.0108323 -1.7364786
-3.9595189 3.1440592 -1.8647075
-3.6477227 3.2131429 -1.839432
-3.3274765 3.6147945 -1.8071738
-4.8306313 2.8559251 -1.9200426
-3.4538682 3.231468 -1.8313723
-3.6695693 4.4236083 -1.750541
-3.2657206 4.9955611 -1.7098628
-3.1988237 3.1126592 -1.8587242
-4.2546206 4.1341825 -1.7630924
-4.2316327 3.1231017 -1.8536186
-3.3314075 4.9588962 -1.7116575
-4.9358072 4.4154496 -1.7751601
-2.9703937 3.5665264 -1.7938932
-4.0912776 2.8833458 -1.8991042
-2.8017492 4.3040242 -1.7429018
-4.7006989 3.7758698 -1.7945795
-2.9344141 3.9264426 -1.7672738
-3.4369624 3.2360277 -1.8274684
-4.789566 3.0370526 -1.880711
-3.8771281 3.2541201 -1.8305126
-4.3919649 4.8354993 -1.7488118
-3.4255188 3.9437139 -1.7756798
-4.1818261 3.5812969 -1.8209536
-2.9032633 3.5081959 -1.8029644
-4.2294927 2.9984276 -1.8790445
-2.821363 4.4763598 -1.74354
-4.3383989 3.2340062 -1.8454202
-2.9590273 3.9079275 -1.7672738
-4.2944121 2.9443369 -1.8878684
-3.6743608 2.9724593 -1.8778876
-4.8577819 3.6448927 -1.8087796
-4.862042 3.2110183 -1.8348017
-4.3846378 2.876595 -1.902575
-2.8548732 5.0040922 -1.7075266
-3.2628901 4.6599212 -1.7309541
-4.3426738 4.0889101 -1.7735881
-4.266314 3.1073678 -1.8607986
-2.8436148 3.3213258 -1.8171984
-3.1432564 3.3252468 -1.8125292
-2.8884859 3.3620553 -1.799844
-3.2379346 4.4272809 -1.7487288
-4.7582965 3.7246652 -1.7989012
-3.1906643 4.4907904 -1.7257566
-4.5826478 3.4589946 -1.8055931
-3.1777601 3.7979479 -1.7871277
-4.0783982 4.5027022 -1.7433641
-3.8893123 4.3960919 -1.7427181
-4.3171425 3.2498755 -1.8426305
-5.0487862 4.8147726 -1.7605537
-3.3039844 3.231528 -1.8324554
-4.4621735 3.8501894 -1.7991924
-3.2134147 3.7678287 -1.7871277
-3.7971835 3.2562511 -1.8430392
-3.5371082 2.8832691 -1.9044029
-4.8672462 2.9799719 -1.8936132
-3.438751 3.5298567 -1.8131515
-2.8418062 3.9688447 -1.7591852
-2.8419714 5.0179901 -1.7093788
-4.9221368 2.7761898 -1.9346882
-4.72858 3.7255449 -1.7914925
-4.291769 3.4367516 -1.8182372
-4.885591 2.8062916 -1.9284114
-2.8770001 4.6579399 -1.7140732
-3.3708432 3.0388374 -1.8470984
-4.3090653 3.9481385 -1.7827647
-2.9914403 4.9325705 -1.7099962
-3.7424445 2.9221718 -1.8874522
-3.5228353 3.6912584 -1.7933056
-3.8946142 4.8948598 -1.7432781
-4.3521819 3.4180956 -1.8311393
-4.0821986 2.8961852 -1.8991042
-3.788451 3.1016734 -1.8539672
-2.982549 4.2106652 -1.751968
-3.0492461 3.2093179 -1.842114
-3.4539745 4.7057247 -1.7322224
-3.9124117 4.2748847 -1.7663368
-3.7378497 2.9280465 -1.8874522
-5.0082054 4.3682876 -1.7818872
-3.6432071 4.5753922 -1.7359267
-4.1984549 4.1965933 -1.764327
-2.9467502 3.5837026 -1.7931125
-3.5821908 4.0111141 -1.7747769
-3.2300587 3.1039126 -1.8661991
-3.0066962 3.5528774 -1.7993588
-4.0901551 5.016777 -1.7314332
-4.9149899 3.4113092 -1.8288888
-2.9786735 3.2453504 -1.8321476
-3.0034029 3.6969125 -1.7988852
-2.8468411 4.2698269 -1.7415068
-3.7702403 4.3607268 -1.7562275
-3.1043408 3.3466105 -1.8077469
-3.8187695 2.8677554 -1.899408
-4.2856517 4.3462029 -1.7523375
-3.5607986 2.8655829 -1.907725
-4.6559505 4.0465703 -1.7726777
-5.0086756 4.0523868 -1.8003327
-3.7113035 4.5424614 -1.7414834
-3.0624301 3.6626301 -1.8034754
-2.8192995 3.8984854 -1.7660784
-4.0052834 3.5060718 -1.8126423
-3.2705686 3.3734031 -1.8180985
-3.479116 4.8915763 -1.7206309
-4.1730695 2.9840021 -1.8945951
-3.4891725 3.7256525 -1.7940238
-3.4775307 2.9266775 -1.8960978
-3.0676734 3.2372484 -1.812065
-3.9686852 3.9771829 -1.7634032
-3.6328993 3.4710622 -1.8158059
-4.0427918 2.9258003 -1.892984
-2.8246269 4.687676 -1.7134241
-3.9091964 3.5879953 -1.8063657
-5.0089822 3.4943476 -1.8198926
-3.5641642 3.852138 -1.7847462
-4.0082974 2.8331189 -1.907111
-3.0159073 4.5873499 -1.7192661
-2.8654244 4.268671 -1.744994
-3.5947556 2.8375738 -1.9118778
-4.5104442 3.4885969 -1.8244995
-3.5164211 3.8730125 -1.7784693
-4.4135208 2.8561158 -1.9077227
-3.290287 4.775466 -1.7198744
-4.5728054 3.2224524 -1.8528694
-4.2713947 2.8947189 -1.9065504
-3.7791591 3.3477964 -1.8253651
-3.3474147 4.3966146 -1.7315981
-3.3639491 3.5859666 -1.8086684
-3.4267783 3.2468107 -1.8274684
-3.9253964 3.4041436 -1.8292062
-3.2658825 3.1064863 -1.833248
-3.5012517 3.3159666 -1.8233662
-2.8932357 4.2521372 -1.7456913
-3.4156604 3.9448197 -1.7735875
-4.4260054 4.5117898 -1.7630725
-2.8854764 3.6238101 -1.7899892
-4.7367992 3.0878184 -1.8745996
-4.1999187 3.5513265 -1.818916
-4.7117534 4.0050688 -1.7774634
-3.2558432 3.6620882 -1.8019435
-4.6707764 3.3779206 -1.8133821
-4.4583282 4.487946 -1.7648189
-3.5357335 3.5411358 -1.8077172
-4.3435869 3.6703687 -1.7867697
-3.4194195 3.4055285 -1.8248965
-3.7220097 3.4029582 -1.8231592
-3.6249285 3.9827144 -1.7774934
-3.2111883 3.1051381 -1.8603853
-4.8889017 3.163012 -1.8335032
-4.4436417 3.5788147 -1.7932607
-3.1371655 3.1879139 -1.8177681
-3.0478408 4.5730171 -1.7212131
-3.2803836 3.5118887 -1.816481
-3.299139 4.9781332 -1.7110591
-3.0618136 3.2023666 -1.843775
-3.730582 4.1480565 -1.7497725
-4.802599 3.9289074 -1.784044
-3.3291762 3.0325906 -1.8769956
-4.2369094 4.006166 -1.7783418
-4.6033144 4.1034813 -1.7720792
-3.708607 3.569479 -1.8105378
-2.9695318 3.4425993 -1.7997763
-3.3301899 3.7001309 -1.7974225
-3.4909561 3.5852866 -1.8077172
-3.5624521 3.1587358 -1.8446461
-4.1027594 4.501195 -1.7481499
-3.5128956 3.1946316 -1.8391805
-3.4667151 3.2230933 -1.832934
-4.4663229 2.811414 -1.9158113
-3.5108919 4.8711729 -1.7212293
-3.5150952 3.7063515 -1.7954597
-4.1106548 4.2667971 -1.7606226
-4.9892392 4.6712551 -1.7774172
-3.6746879 3.9368498 -1.7774934
-4.529429 3.2348285 -1.8426836
-3.0982177 4.8977542 -1.7186399
-4.9578719 3.3723538 -1.8333116
-3.0181479 3.256129 -1.803103
-3.509232 3.889632 -1.7812591
-3.1255815 3.6211028 -1.8073006
-2.9054708 4.6098781 -1.7362101
-4.1273599 2.8510084 -1.9036945
-3.809742 2.8797374 -1.899408
-3.1119416 3.1740916 -1.8504192
-4.2172089 4.3994374 -1.7493463
-3.0231605 4.7987304 -1.7252674
-4.8985825 4.7330642 -1.770879
-3.5683682 2.8532383 -1.9068946
-4.9441319 3.3857546 -1.8320479
-3.4867079 2.9157379 -1.8960978
-3.8447721 3.087961 -1.868503
-3.7207494 3.91154 -1.7822467
-3.0352259 4.1728535 -1.751968
-4.011992 3.2957647 -1.82777
-3.8833821 3.6324005 -1.8105499
-2.941663 3.4760604 -1.8029644
-3.0116401 3.2696025 -1.805547
-3.9009218 3.1784298 -1.8549939
-4.4770441 3.9700596 -1.779762
-3.0869052 3.188324 -1.847097
-4.543057 3.0754173 -1.8733164
-3.510277 4.5126405 -1.7404317
-3.4712329 2.9744184 -1.8617636
-3.5134141 3.5632813 -1.8077172
-4.0031896 2.9549315 -1.8868639
-8.5258036 6.2562308 -1.8302647
-7.4610915 5.8083386 -1.816031
-8.4323559 6.3522639 -1.8269544
-9.3722525 5.384531 -1.8740349
-8.692049 6.1090012 -1.8394601
-7.4979515 6.2215748 -1.802467
-7.5279784 5.7472348 -1.8192884
-7.2999592 6.021914 -1.8176596
-7.818861 5.9469194 -1.8185753
-7.6475286 6.1061516 -1.8111105
-9.5461473 5.1696744 -1.8828626
-8.848814 5.9327521 -1.8449774
-9.0998077 5.6749892 -1.8582187
-9.4003868 6.164454 -1.858289
-9.5036268 6.0628457 -1.86391
-7.4107556 5.2242818 -1.8192899
-8.4934769 5.278254 -1.853935
-8.1459694 5.6294665 -1.8342907
-7.5714288 6.1630526 -1.8063958
-8.0602226 5.7211299 -1.8307548
-7.5145535 5.7744212 -1.8205099
-8.4149323 5.3771443 -1.8511848
-8.2208576 5.0746961 -1.8587859
-8.7892561 6.0136743 -1.8442417
-7.6977067 6.0871348 -1.8166108
-8.0422096 5.7464228 -1.8307548
-7.8929453 5.4202542 -1.8408694
-9.493557 5.2575154 -1.8821268
-7.3046012 5.3054595 -1.8107957
-8.8875589 5.8781152 -1.8453451
-7.9714923 5.7908993 -1.8244685
-8.1620026 5.6027308 -1.8338978
-8.2626886 5.520505 -1.8413627
-7.8742642 5.4439149 -1.8404623
-7.5550566 6.1893029 -1.8071817
-7.8506823 5.4641671 -1.8388336
-7.9516802 5.8147535 -1.8240757
-9.048996 5.722631 -1.8549083
-8.7240038 5.0306835 -1.8680788
-8.245121 5.0539355 -1.8608216
-8.2132025 5.1056414 -1.8608216
-8.9109192 5.8533936 -1.8464487
-8.5562267 5.206162 -1.857078
-8.2005892 5.5914803 -1.8390054
-9.3336926 6.2260337 -1.8544244
-8.8129921 5.9893346 -1.8453451
-7.3552303 5.2720323 -1.8154674
-9.2372637 5.5215497 -1.8652072
-7.9252224 5.3694601 -1.8404623
-8.9524765 5.8004856 -1.8475521
-7.4858761 6.2514062 -1.8044316
-7.5369816 5.1034784 -1.8269348
-7.7250032 6.0301728 -1.8138608
-7.8670292 5.9059443 -1.8213254
-7.3784008 5.2361803 -1.8150429
-9.2082243 6.3963451 -1.853019
-9.2713509 6.3114991 -1.8537217
-7.4676852 5.1597838 -1.8214133
-8.4966011 6.276 -1.8280578
-7.3829145 5.8979826 -1.8148092
-8.6326408 6.1487188 -1.8346785
-9.1159172 5.6453438 -1.8578508
-7.3127708 5.9940019 -1.816031
-8.9913521 5.8055377 -1.8541728
-7.981636 5.3347287 -1.8461629
-9.2201862 6.361773 -1.8512626
-8.5465069 5.2371306 -1.8586496
-8.6787033 5.0774426 -1.8649358
-8.4768419 6.3026638 -1.8280578
-9.5470057 5.9646301 -1.8610995
-9.5454111 5.2080736 -1.886173
-8.5777035 6.2117324 -1.8332071
-7.7985868 5.9702568 -1.8181825
-8.0677748 5.246768 -1.8510493
-9.1906042 5.5723753 -1.8626325
-8.0097942 5.3171792 -1.8490132
-8.2164936 5.5645857 -1.8386124
-8.8690462 5.9060106 -1.8453451
-8.3797512 6.395607 -1.8240117
-7.9349508 5.8408699 -1.8244685
-8.6382093 5.1268468 -1.8629712
-9.4028015 5.3628187 -1.8769774
-9.4246483 6.1381254 -1.8593428
-7.768939 5.9863214 -1.8154323
-9.0062304 5.775146 -1.8534371
-9.4127512 5.3293972 -1.8755062
-8.6745167 5.1116829 -1.8676859
-9.3483715 6.2146459 -1.8554783
-8.0280972 5.2930617 -1.8494204
-8.2355604 5.539844 -1.8390054
-7.5901413 5.7008219 -1.8237675
-9.4431772 5.3074703 -1.8784487
-7.7120805 5.6049805 -1.8323185
-8.6019735 6.1881843 -1.8343107
-7.5265174 6.2054992 -1.8048244
-7.8855438 5.8811998 -1.8213254
-8.6119757 5.1478958 -1.8606139
-7.6866035 6.0979958 -1.816218
-8.054534 5.2742243 -1.8518636
-7.76616 5.5331802 -1.8327256
-7.3556428 6.3412437 -1.796181
-8.4185591 5.3422441 -1.8480418
-7.3983192 6.2974529 -1.7969668
-8.4502087 5.3252153 -1.8515776
-8.4785128 5.3059559 -1.8543279
-9.2764759 6.2723808 -1.8505598
-8.5200148 5.2577505 -1.8562924
-8.751298 6.0687809 -1.8442417
-7.6313572 6.1326146 -1.8118964
-7.6336927 5.6588278 -1.8258034
-8.7144279 6.0839067 -1.8401957
-7.338274 6.3463554 -1.7942165
-7.4886146 5.7920327 -1.8184741
-7.6593318 5.6406012 -1.8278394
-7.8296986 5.9163938 -1.8166108
-8.7622118 6.0356989 -1.8424026
-7.9583244 5.3554244 -1.8445342
-7.3674073 5.923593 -1.8156235
-9.3238792 6.2619328 -1.8565323
-7.337049 5.2939687 -1.8150429
-8.3848276 5.3950319 -1.8480418
-7.4225478 6.2779894 -1.7981453
-7.7503328 5.5586877 -1.8331329
-8.3237915 5.4673305 -1.8456845
-7.3315649 5.9709997 -1.816031
-8.1465044 5.1713285 -1.8563428
-7.9039807 5.8563986 -1.8213254
-9.4632406 5.279686 -1.8791842
-7.4239359 5.1987214 -1.8184403
-8.1334076 5.180975 -1.855121
-8.6695995 6.1340146 -1.8387244
-8.4538479 6.3269134 -1.8273221
-8.081356 5.6980462 -1.8315405
-7.3426609 5.9417982 -1.8139948
-8.55019 6.2328768 -1.831368
-8.2783594 5.493432 -1.8409698
-7.7075596 6.0556283 -1.8142537
-8.3612652 5.4170628 -1.8464702
-7.3079681 6.3603401 -1.7914664
-9.5010376 6.0192084 -1.8593428
-8.9457531 5.8360701 -1.8501267
-8.3000412 5.4891086 -1.8441129
-7.5479279 5.7436724 -1.8221388
-9.2417479 6.3338943 -1.8516139
-9.1244583 6.4233718 -1.8435335
-9.1574793 6.4037313 -1.846344
-7.5481219 5.076489 -1.8256606
-9.1386404 5.6197534 -1.8589544
-7.906693 5.3932323 -1.8400551
-8.3238192 6.4361467 -1.8203336
-9.3212261 5.4334536 -1.8703566
-8.6213713 6.1611323 -1.8343107
-7.6865144 5.6234241 -1.8302826
-8.3982334 6.3680658 -1.8236439
-8.2676592 5.0320635 -1.8624506
-9.2681074 5.5004988 -1.86815
-8.3393126 6.4063835 -1.8192301
-7.7344208 5.5841517 -1.83354
-9.3776932 6.1917758 -1.8575861
-8.1187429 5.207552 -1.8555282
-8.7013826 5.054111 -1.8665074
-9.516571 5.9872279 -1.8586402
-7.48386 5.1362953 -1.8214133
-7.5879955 5.0343895 -1.8277842
-8.0957508 5.2288032 -1.8538996
-8.8350277 5.9638095 -1.8460807
-8.1937981 5.1293507 -1.8600073
-7.3755269 6.3181047 -1.796181
-9.2283058 5.555593 -1.8670464
-7.6143055 5.6816134 -1.8253962
-8.0145826 5.7647648 -1.8283975
-7.812006 5.4921293 -1.8355761
-9.4696474 6.0830593 -1.8607481
-7.5672765 5.0549302 -1.82651
-7.5144639 5.1227102 -1.8252358
-7.4458957 5.834157 -1.8168452
-9.0326328 5.7520843 -1.8552762
-8.5890522 5.1708612 -1.8590425
-7.6074905 6.1528449 -1.8107176
-7.9991684 5.7727404 -1.826826
-7.4497247 6.2609687 -1.8001097
-7.7835045 5.5087547 -1.8327256
-7.3733444 5.2500396 -1.8158922
-9.3501787 5.411005 -1.8729316
-7.5690646 5.7222843 -1.8229532
-7.8388739 5.4742584 -1.8380191
-9.0786009 5.7014666 -1.8574831
-9.2852087 5.4909143 -1.8699888
-9.4620447 6.1202903 -1.8632073
-7.4466372 5.1798563 -1.8201395
-9.1713715 5.6002007 -1.8622646
-9.5169287 5.2314367 -1.8835981
-8.1330662 5.6584015 -1.8354695
-8.3425636 5.4422302 -1.8460773
-8.5825968 5.1853652 -1.8594354
-8.1120424 5.6816649 -1.8346835
-8.166029 5.1477895 -1.857157
-7.415205 5.8478527 -1.8135878
-7.4075546 5.8796129 -1.8164381
-7.754735 6.0143147 -1.8166108
-9.3075075 5.4646912 -1.8710923
-8.2716646 6.4584136 -1.8151841
-8.2973423 6.457449 -1.8188622
-8.2342968 6.4710517 -1.8111382
-6.489584 5.3232393 -1.7940177
-5.6865287 6.2312112 -1.7608868
-6.1504703 5.1793628 -1.8063736
-5.8461733 5.8890023 -1.771878
-6.3650656 6.1462893 -1.7717221
-6.7887239 5.7960043 -1.7887106
-5.7317572 6.5185714 -1.7351968
-6.1495457 6.2636952 -1.7564323
-6.0062995 6.3528581 -1.7487876
-5.3864126 5.2201443 -1.7649297
-5.9421844 6.4048724 -1.7475134
-6.5714755 6.0151854 -1.7848884
-6.0369735 6.3453155 -1.7521853
-6.6697578 5.1627908 -1.803506
-6.7261214 5.0891423 -1.803506
-7.0342884 6.5212312 -1.7722148
-6.9759297 5.6410418 -1.7984788
-5.1858239 5.8936639 -1.759955
-7.0237741 6.1948409 -1.7973002
-5.8861618 6.1135807 -1.7723863
-6.2929664 6.1922545 -1.7674749
-5.1291599 5.9224944 -1.7561659
-5.7308807 6.2010717 -1.7626561
-6.0001001 5.7658854 -1.7773001
-6.7713432 5.8552198 -1.7942319
-6.0672045 5.2410569 -1.8006897
-7.2448716 5.3670607 -1.8082473
-5.7122664 5.5284519 -1.7841117
-5.3218322 5.2722116 -1.76245
-6.6393127 6.4572349 -1.7757192
-5.8111439 5.4670486 -1.7912165
-5.3689728 5.7645493 -1.7665863
-5.1116586 6.5284901 -1.7281578
-6.0749164 5.6927061 -1.7782037
-5.4363871 6.1527586 -1.751546
-6.8939905 5.7194901 -1.7955059
-5.9218216 5.364347 -1.7940586
-6.9084468 5.238483 -1.8139611
-7.1649795 6.1217847 -1.8095158
-5.4297767 5.7207146 -1.7689546
-6.1311989 6.2843866 -1.7568572
-6.3404098 5.7520003 -1.7891932
-5.5985169 5.5914912 -1.7751122
-6.0146151 5.2954459 -1.7997425
-6.8623958 5.76648 -1.7967801
-6.5874577 5.9918728 -1.7840389
-5.0580759 5.4546251 -1.7490604
-5.8208241 5.9003839 -1.7696192
-7.2279763 5.3897929 -1.8082473
-5.4712353 5.1707449 -1.7718724
-6.4371262 5.3652792 -1.7908548
-5.4125237 5.2126369 -1.7684009
-6.7000389 5.4377623 -1.8046733
-5.1541467 5.9136553 -1.758534
-7.0758805 6.1621222 -1.8009648
-5.7803721 6.4912105 -1.737745
-6.4520831 5.6531215 -1.7931739
-5.8271961 6.1483293 -1.7688479
-5.6723423 6.0084805 -1.7637452
-6.2561722 5.8206258 -1.7856549
-6.653656 5.4698801 -1.8011348
-5.9689245 6.3933353 -1.749637
-6.4919119 5.6162844 -1.7945006
-6.5652065 5.2826829 -1.8016986
-5.6298904 5.5875187 -1.7798488
-6.4372258 5.6759329 -1.7940583
-6.5739322 5.5442877 -1.7980388
-5.3402419 5.7700138 -1.762797
-6.0859637 5.9733348 -1.7816745
-7.1316137 6.4877343 -1.782037
-7.2926216 5.3318572 -1.8120699
-5.5817556 6.2731133 -1.7520412
-5.226213 5.3426447 -1.7579868
-5.1466746 5.3952351 -1.7535237
-5.5032253 6.1114159 -1.754709
-5.8991799 5.3777051 -1.7921637
-6.630414 5.4857998 -1.7993659
-6.9521241 5.65798 -1.7967801
-6.4921322 6.0750208 -1.7810659
-6.1939387 5.872642 -1.7834435
-6.7878366 5.0360146 -1.8075724
-6.319418 5.769269 -1.7883086
-6.1233749 5.9349775 -1.7816745
-5.4283519 6.3576708 -1.7436379
-6.4712863 5.6341 -1.7936162
-6.2956185 5.4862599 -1.7840774
-6.455986 6.0792599 -1.7759691
-6.9936166 5.6190987 -1.7984788
-5.2206421 6.4767814 -1.7343497
-5.7032733 5.9656577 -1.7614861
-5.8104172 5.9270134 -1.7723299
-6.6062479 5.971149 -1.7840389
-5.3672228 5.2343235 -1.7639376
-5.5237269 5.6572418 -1.7736911
-6.7486506 5.3898244 -1.8064423
-5.2400289 5.0233302 -1.7705824
-5.5106759 5.1428995 -1.7743518
-6.2465982 5.0784268 -1.8087418
-5.9956508 6.3816938 -1.7517606
-6.7960706 5.3235831 -1.8055578
-6.6402469 5.2070088 -1.8044096
-5.703249 5.5544758 -1.7869534
-6.4743524 6.5594926 -1.7663536
-5.4316621 5.1982975 -1.7693927
-5.4710531 6.1141124 -1.7501906
-5.5047355 6.3253031 -1.7493876
-5.8085361 6.4817743 -1.7402931
-5.6548381 5.0336285 -1.7827823
-6.6218004 6.4807925 -1.7765335
-5.8903866 6.4498959 -1.7470887
-6.9207411 5.6686058 -1.7929578
-6.0297537 5.2752514 -1.7992686
-6.1531415 5.6225128 -1.7804629
-6.3973489 5.4005737 -1.7890476
-6.6000099 6.5001926 -1.7761263
-6.2123594 5.8531523 -1.7834435
-6.0595703 6.3291507 -1.7530347
-6.74262 5.8674526 -1.7912589
-5.3424988 5.2595568 -1.7639376
-7.0600491 5.5638642 -1.8023014
-5.7625666 5.4900956 -1.7864798
-6.6523604 5.9373555 -1.786587
-6.5097556 6.0532603 -1.780641
-6.3588605 5.4368491 -1.7876922
-6.1858873 5.1430926 -1.8073208
-6.6723228 5.4501777 -1.8015771
-5.595396 6.0590038 -1.7601306
-5.5293117 6.2934484 -1.7476184
-5.4944901 5.1601887 -1.7743518
-6.6811714 6.4167438 -1.7761263
-6.1637211 5.1575322 -1.8054261
-6.1141381 6.3064313 -1.7577065
-5.9152279 5.8473835 -1.7763963
-7.2678623 6.4061303 -1.7914664
-6.9220815 6.2616587 -1.7907851
-5.7113714 6.2190456 -1.7626561
-5.3823061 6.1691298 -1.7461243
-5.7717099 5.9620008 -1.771878
-5.3203335 6.433156 -1.7409842
-5.7822795 5.9354401 -1.7691672
-5.9238706 5.8191814 -1.7732335
-7.2805934 6.3767853 -1.7895018
-5.2623968 5.3124638 -1.7589786
-5.5232882 6.3065147 -1.7489452
-6.7256212 5.8898978 -1.7916836
-5.3207688 5.7853346 -1.7623234
-6.8596821 6.3039422 -1.7871203
-5.1257129 5.4071455 -1.7520359
-5.1254063 6.3215842 -1.7348284
-5.095407 5.1046238 -1.7582698
-5.568872 5.0999298 -1.7778232
-5.1595864 5.3748331 -1.7520359
-5.2822833 6.469471 -1.7418689
-5.2193336 6.2746992 -1.7402503
-6.2421799 5.5440531 -1.7836256
-5.8618999 5.8678417 -1.7709744
-6.0527639 5.7077389 -1.7768484
-6.0492401 5.258821 -1.8002161
-5.780426 6.1763015 -1.7661943
-5.988358 6.0272684 -1.7745978
-7.1189389 5.5202651 -1.8065485
-5.8545856 6.1384354 -1.7715018
-6.5304532 5.2885146 -1.7962769
-5.7326283 5.49611 -1.782217
-5.3354049 6.1737323 -1.7397988
-5.761241 6.5108061 -1.7381698
-6.1750913 5.6070952 -1.7818183
-5.1384115 5.0833454 -1.7623739
-5.2872381 5.3041682 -1.7619539
-7.2534041 6.0412579 -1.8127732
-6.7842026 6.3536329 -1.7826413
-6.136353 5.9103169 -1.7799052
-5.4184656 5.7447915 -1.7713227
-5.2440047 6.2642632 -1.7420577
-5.501853 5.6703982 -1.7722702
-5.3870578 5.7476516 -1.7665863
-6.9781923 5.1714582 -1.8174995
-6.4470406 5.356411 -1.7913065
-6.6336761 5.9582238 -1.786587
-6.5581646 6.5202098 -1.7728688
-5.1598787 6.5053892 -1.7308116
-6.7056198 5.9097023 -1.7912589
-5.7953568 5.486608 -1.7916901
-5.1100259 5.4246364 -1.7525318
-6.0072627 6.0084271 -1.7745978
-5.9330034 5.8098698 -1.7732335
-5.6274877 5.0409851 -1.7788149
-6.2940617 5.782517 -1.7860972
-6.7688656 5.054975 -1.8066688
-5.5820093 5.0797915 -1.7768314
-6.8433032 5.2914743 -1.8095382
-6.4268374 5.6847496 -1.7936162
-5.3507533 5.2511587 -1.7639376
-5.0686803 5.1420259 -1.7603219
-7.2141266 5.4148326 -1.8090969
-6.2859793 5.0451369 -1.8111101
-6.3715224 5.7437673 -1.7931739
-5.3342543 6.4089346 -1.7387727
-6.2693276 6.2078571 -1.7662008
-6.3113537 5.4651766 -1.7836256
-5.5310531 5.1295309 -1.7758396
-6.086596 5.224493 -1.8016369
-6.7162852 5.1149888 -1.8053131
-6.7116113 5.4296761 -1.8055578
-6.1148419 5.6584058 -1.779559
-5.0657482 6.5543194 -1.7263888
-6.0319829 5.7240367 -1.7759448
-5.5528221 5.1174002 -1.7778232
-6.9279933 5.21909 -1.8148458
-5.5388999 6.0738292 -1.7538052
-5.2146564 5.888948 -1.7637442
-5.0592217 5.954329 -1.7509556
-5.8596201 6.4567623 -1.7436911
-7.1395454 5.4646959 -1.8027261
-6.5620184 6.0255013 -1.7848884
-5.8038287 6.1623573 -1.7675213
-6.2355924 5.0857878 -1.8077946
-5.0850415 5.4321499 -1.7495564
-6.5549922 5.5636539 -1.7975966
-6.7897048 5.8339181 -1.7942319
-6.9396605 5.193809 -1.813519
-5.3185139 6.1934261 -1.7407023
-6.9984064 6.2116904 -1.7956713
-5.6925273 5.9920497 -1.7641972
-7.1054235 6.5047946 -1.7804654
-6.0940857 5.1978073 -1.798795
-5.6131883 6.2685885 -1.7560219
-6.7255888 5.4061294 -1.8046733
-5.6087546 5.0560355 -1.7778232
-5.1687207 6.2937841 -1.736184
-6.2871156 5.5137491 -1.7867883
-5.1030879 6.3346109 -1.7339247
-6.8368025 5.7816777 -1.7946565
-5.1888404 6.4997916 -1.7339076
-7.076323 6.5190873 -1.7781082
-5.207469 5.0237222 -1.7644262
-6.9686093 6.2245445 -1.792821
-6.2387505 6.216454 -1.7628032
-5.3782024 6.3797536 -1.7400995
-7.1397605 6.1391754 -1.8078872
-5.082972 5.9442973 -1.7528504
-6.1512742 5.9060564 -1.7816745
-5.4534006 6.3464861 -1.745407
-5.8822546 5.3962135 -1.7921637
-5.9258237 6.0778704 -1.7728288
-6.5906601 5.2352467 -1.7994397
-6.586998 6.5078063 -1.7753117
-5.1930523 5.0413985 -1.7649392
-5.987741 5.3053274 -1.7964269
-7.2476997 6.4289312 -1.7914664
-6.8254313 6.3122058 -1.7830484
-5.852386 5.4028449 -1.7879008
-5.5632734 5.6265578 -1.7751122
-6.2653928 5.5295911 -1.7854331
-6.4340267 6.0968137 -1.7751198
-5.6817489 6.5440998 -1.7322239
-6.2335725 5.8362665 -1.7843282
-6.7341766 6.3867288 -1.7797909
-6.8084412 6.3362784 -1.7838628
-5.5605798 6.0592775 -1.754709
-5.3578124 6.1801038 -1.7443168
-5.5809216 5.6090531 -1.7751122
-7.0007019 5.1541176 -1.8192687
-6.5316048 6.0354409 -1.7814903
-6.1440296 5.6497545 -1.7831738
-7.2208524 6.0527329 -1.8091086
-6.7594237 5.3637648 -1.8046733
-5.0738697 5.4372878 -1.7485646
-6.117816 5.1848946 -1.8011633
-6.5943155 5.526104 -1.7989236
-6.8645444 5.2735004 -1.8108652
-7.1897001 6.4585686 -1.7867516
-7.0851684 5.5477047 -1.8044249
-6.3417478 5.4567995 -1.7876922
-5.6564074 6.2375174 -1.7573487
-7.2742639 5.3535776 -1.811645
-5.3075552 6.458858 -1.7436379
-6.0139713 5.7429571 -1.7759448
-6.5650706 5.2485976 -1.7967285
-6.2801714 5.8062224 -1.7874242
-5.1143436 5.942986 -1.7575867
-5.5483036 5.6467695 -1.7760594
-5.1571245 5.0698757 -1.7634001
-5.9666443 6.0432839 -1.7737132
