# .PCD v0.7 - Point Cloud Data file format
VERSION 0.7
FIELDS x y z
SIZE 4 4 4
TYPE F F F
COUNT 1 1 1
WIDTH 1521
HEIGHT 1
VIEWPOINT 0 0 0 1 0 0 0
POINTS 1521
DATA ascii
4.6004419 1.9486413 -1.7523789
6.151226 0.4435423 -1.7164974
5.3584094 1.0854447 -1.711477
4.9463477 0.53866994 -1.7444811
4.0422845 1.4756318 -1.7856385
3.9983597 1.6766319 -1.7566632
4.0781388 1.4448711 -1.7525897
5.7092056 0.6489076 -1.7025875
4.2332497 0.84078437 -1.7914521
4.8756928 0.02757863 -1.7569792
5.458343 0.49214223 -1.7160206
5.5514803 1.0130733 -1.7157899
5.7590208 0.05478061 -1.7069092
4.5395503 1.5190947 -1.7563648
4.8492894 0.14948072 -1.7474198
4.7314172 2.0066471 -1.7442966
5.7016683 1.6915659 -1.7032821
5.3187985 1.305618 -1.7147225
4.8113365 1.8383969 -1.748481
5.2762341 0.31551182 -1.741503
4.4691296 1.930683 -1.7540379
4.1029525 1.3034582 -1.7864691
4.9556222 0.4453418 -1.7444811
4.7026448 0.11366616 -1.7744042
4.8425827 0.46243238 -1.7525672
4.0537486 1.4438404 -1.7856385
4.5500541 0.35840988 -1.7610992
4.7461276 1.0500228 -1.7510966
5.9260454 0.2665242 -1.6984963
4.7684474 0.51571864 -1.760101
5.6511979 1.0601015 -1.7038224
4.2851453 0.12013654 -1.7781639
5.5883179 0.87523955 -1.7202128
4.2854338 0.20776255 -1.7798249
5.3405623 1.2135285 -1.7147225
5.2110319 0.85071236 -1.7394656
6.1056309 1.7374734 -1.6949942
5.5744467 1.5067822 -1.7118484
4.8322954 1.7771555 -1.7477837
4.187633 1.151137 -1.7599224
5.0615187 1.4965754 -1.7387866
4.6461244 1.8063797 -1.748071
4.2612224 0.53040892 -1.781486
4.6248717 1.8400154 -1.745199
4.6625376 1.1006564 -1.7578592
5.8707199 0.85070622 -1.6984963
4.7169914 2.0355995 -1.7435992
4.9751945 0.062969789 -1.7444811
4.3434606 0.10770789 -1.7607369
5.7630377 2.1138923 -1.7077647
4.5649161 0.20843415 -1.7634416
5.616313 0.76242822 -1.7240039
4.3162107 1.1240382 -1.7623147
5.2781096 -0.0164218 -1.7387866
5.8849053 1.8187532 -1.7141685
5.9123998 0.52714878 -1.6996927
5.5480456 1.1117537 -1.7208446
6.1289043 0.017408449 -1.7048537
4.6292839 0.80336046 -1.7721092
5.4783301 0.053733069 -1.7153715
5.5882173 1.4166579 -1.7087615
5.8132567 1.2001617 -1.6996927
4.3479323 1.4358332 -1.7673457
5.5851088 0.96479553 -1.7240039
5.4683747 1.8728752 -1.7137005
5.282475 2.0331624 -1.7214766
4.567759 1.4808977 -1.7623425
4.4841042 0.8411054 -1.7603183
4.8359699 0.33950713 -1.745949
4.4728174 0.13476354 -1.7686912
4.7395797 0.79341167 -1.763837
5.1958718 1.7335355 -1.7460933
4.9000559 0.89539254 -1.746635
4.7929564 0.495653 -1.7690673
5.5109453 1.2491813 -1.7183173
5.4842906 1.3614469 -1.7183173
5.3295035 1.8895167 -1.719581
4.4764938 -0.04096983 -1.7694881
4.020751 1.5687221 -1.7914521
4.170063 1.0694842 -1.7864691
4.6805282 0.17211756 -1.7659888
5.1939845 1.7510387 -1.7474109
6.0497088 1.0736232 -1.7095112
5.1185975 1.2801629 -1.7381076
5.6779394 0.239969 -1.7290585
4.2651153 1.9532152 -1.769049
4.1859493 1.1365068 -1.7574779
4.9512048 0.49202657 -1.7444811
5.4866943 1.3437688 -1.7176855
5.2249522 1.6095392 -1.711477
4.4421892 0.4001174 -1.7623147
5.4097252 1.7098852 -1.7258992
4.5034814 0.59068203 -1.7517295
5.0802422 0.72598964 -1.7415068
6.1192842 0.46043831 -1.7071823
6.176589 2.1564198 -1.6945997
4.6314278 0.83370084 -1.7751694
5.2451639 0.2639024 -1.7292798
5.7552238 0.3353948 -1.7087615
4.4795332 1.7703146 -1.7683201
4.9675274 0.15652758 -1.742327
4.5818725 1.9919116 -1.7523789
5.8202634 1.1161077 -1.6967015
4.2878623 1.5745847 -1.7626607
5.4973869 0.036739081 -1.721862
5.4697971 0.23420294 -1.7140732
5.9393053 0.16431695 -1.7014875
4.7674804 1.9690348 -1.7512708
5.2255602 0.81945378 -1.742861
4.7881856 0.15485038 -1.7578592
4.7717056 0.30453572 -1.7541234
5.1314039 0.3176457 -1.744994
5.1436119 1.1924013 -1.7394656
5.4741654 -0.083914369 -1.7140732
4.4057641 0.70622146 -1.7631118
5.7460256 1.4428222 -1.6961033
4.4175062 2.0416133 -1.7533023
5.4906449 0.11430582 -1.719915
4.7798305 0.41841528 -1.760848
4.034306 1.9698154 -1.7750676
4.6433377 1.4813614 -1.7562438
5.6707926 0.097063877 -1.7252674
5.4640117 0.2769455 -1.7127751
5.8585186 0.94310963 -1.6990945
4.7376885 1.5977787 -1.7538152
4.4877586 0.87106699 -1.7642223
5.129508 -0.069579497 -1.7408094
5.5813327 2.0650795 -1.7044785
4.9684625 0.32873079 -1.7459172
4.6810694 0.4824605 -1.7751694
4.2741551 0.71675521 -1.7558484
4.5368443 1.5899688 -1.7645841
4.5748396 -0.057116479 -1.7657841
5.4181776 0.50381243 -1.7335746
4.3456044 0.23771285 -1.763996
5.9250956 1.6190634 -1.7089288
5.5675168 0.94385177 -1.7170535
4.8551502 1.6738999 -1.7429018
4.8418941 0.24069236 -1.745949
5.7575121 1.3881625 -1.6955051
6.1607223 0.095062263 -1.7147508
5.4514766 1.5088891 -1.7202128
4.6935802 1.6736717 -1.7473531
4.6288161 0.87831616 -1.7774643
4.0713439 1.5222639 -1.7615516
5.5938458 0.81321079 -1.7189492
4.9035397 1.5200241 -1.7422045
4.6646852 1.7631809 -1.7487891
4.5324149 1.2658569 -1.7751694
4.5250196 1.6178118 -1.763837
4.7939258 0.20032218 -1.760848
5.0978155 0.59008735 -1.7415068
5.6948967 1.6121076 -1.6943085
5.3429985 1.089164 -1.7375278
4.2972322 0.066383541 -1.7831469
5.5681376 1.4862698 -1.7081439
5.9287715 0.1268016 -1.697898
4.3516121 1.3765622 -1.7610992
4.4432411 0.42835298 -1.7639087
4.6352243 1.8188932 -1.7459172
4.3442826 0.066766642 -1.7607369
4.0801816 1.5037041 -1.7623663
5.2381339 1.5219913 -1.7381867
6.0641212 1.0467718 -1.7124221
4.2298093 0.75079149 -1.7823164
4.7029624 0.97848743 -1.7630897
4.6312208 1.8341416 -1.746635
4.6533461 1.2071971 -1.7645841
4.974875 1.7912873 -1.742182
4.2303834 2.0101802 -1.7659888
4.9524422 1.316187 -1.7387174
5.274313 0.024995949 -1.7374285
5.6596828 0.33730611 -1.7246356
5.2490635 0.58802873 -1.740145
6.1679916 1.4348015 -1.6905093
4.6225877 1.5390157 -1.7555084
5.4608746 0.36287072 -1.7134241
5.2951455 1.999931 -1.7214766
5.9088135 0.54555225 -1.6990945
6.1383348 0.34571156 -1.7106755
5.4306459 0.47052884 -1.7368689
4.5714898 0.01471621 -1.7642223
4.746944 1.0112015 -1.7481551
4.4939213 1.6706092 -1.7593538
4.6983032 0.2318078 -1.7744042
4.8695073 2.0893726 -1.7462564
5.2852831 2.0152218 -1.7202128
5.9275889 0.37862679 -1.7008892
4.0520897 1.9158664 -1.7718792
4.7058196 0.18770844 -1.7766993
6.1536732 0.2206845 -1.7135864
4.6687107 1.3532978 -1.7510966
5.1088014 0.48587033 -1.7415068
4.9661446 0.19553721 -1.742327
4.5568357 0.25827038 -1.7610992
4.8261023 0.51452577 -1.7481551
4.3099966 2.1586831 -1.7698144
5.6084509 0.86928141 -1.7265311
4.2303467 1.4645295 -1.7694881
4.3852262 1.951781 -1.7615951
5.2471461 0.57110989 -1.7387866
4.7359524 0.90808743 -1.7705616
4.766655 0.65240991 -1.7660784
4.3419518 0.09401235 -1.7599224
5.8771596 0.77638572 -1.6972997
4.5393672 0.32880953 -1.7556336
4.2308526 0.72361004 -1.7806554
4.6873722 -0.01180167 -1.7675189
6.0299244 1.128794 -1.7066001
4.7800279 0.86224049 -1.7496258
4.552897 2.0390801 -1.749507
5.108891 2.0251036 -1.7212131
4.1227131 1.2458431 -1.7872996
4.7883291 1.359045 -1.745199
4.6809387 0.2457882 -1.7675189
4.9718056 -0.023002779 -1.7430449
5.42419 0.71997386 -1.7441167
6.1579008 0.25961059 -1.7153331
5.0370784 1.0295869 -1.744994
5.7353792 0.40654516 -1.7038224
4.3573627 1.3332918 -1.7579758
5.1293736 0.2528908 -1.7429018
4.5140672 1.3298019 -1.7751694
5.2540998 1.4375656 -1.7355512
5.7416158 0.37076539 -1.705057
6.0602059 1.8176268 -1.6888276
5.3247423 1.1029522 -1.7322568
4.6328726 0.73671663 -1.769049
5.8057189 1.217656 -1.6984963
5.6978636 0.83884698 -1.7069092
4.2128935 1.5031208 -1.767894
4.2109056 1.009343 -1.7542192
5.208159 1.6024405 -1.7362101
5.1683178 1.7968564 -1.7441167
4.749403 1.0351059 -1.7510966
5.1546698 1.160904 -1.740824
4.6429453 1.157784 -1.7556177
4.9277453 0.76512897 -1.7487891
4.0984335 1.8055323 -1.7702854
6.1280141 0.51927733 -1.7112576
4.0169058 1.9927082 -1.7726763
4.2901797 1.8837824 -1.7667539
4.3214884 1.1543753 -1.767894
4.6641641 0.46601784 -1.7675189
6.1440053 0.16232684 -1.7100933
5.0779386 1.9922467 -1.7381867
5.4570246 0.52661657 -1.7166696
4.3828726 1.6671391 -1.7682838
4.7682419 1.0704958 -1.7613912
4.8875103 0.98067451 -1.748071
5.4524522 -0.06834811 -1.7375278
4.8398318 0.4315303 -1.7503611
5.1680017 1.814935 -1.7460933
4.3366981 1.416931 -1.7603183
5.353025 1.0387629 -1.7375278
5.2387695 1.5400106 -1.7401633
4.1999006 1.0838155 -1.7574779
4.6748147 0.57103485 -1.7766993
4.8649344 1.6857572 -1.7477837
4.5949502 1.9804974 -1.7552512
4.8954062 0.95031345 -1.7487891
5.4047661 0.91920793 -1.7166696
5.7605457 1.4080224 -1.697898
5.69665 0.76560867 -1.7032049
4.2327189 1.406141 -1.7623147
4.7443871 0.6644429 -1.7578592
4.493813 1.8334799 -1.7481551
4.8552971 0.01231966 -1.7488904
4.278367 0.16034749 -1.7756724
5.4767694 1.8182178 -1.7106136
4.7049837 1.6694622 -1.7509432
6.1298614 1.6201521 -1.6927516
5.1024714 0.59872091 -1.7435992
4.4525657 0.38690069 -1.7663
4.5437264 1.4887801 -1.7541234
4.9752965 -0.05426209 -1.7444811
5.4450874 -0.051109951 -1.7348922
4.2517672 0.85807389 -1.7574779
5.3675146 2.1551275 -1.7149354
4.1623249 1.2005686 -1.7550339
4.1947832 1.1248025 -1.7599224
4.846396 0.17989032 -1.7466846
4.2118444 1.4730477 -1.7631118
5.0824099 1.975607 -1.7375278
5.0514617 0.9665513 -1.7456913
4.6893921 1.2797955 -1.7510966
5.4716883 0.3981992 -1.7179676
4.862741 -0.01061508 -1.751832
4.431529 0.50466466 -1.7623147
5.9052091 0.63888747 -1.7008892
5.6780491 0.11499655 -1.7277949
4.6733618 0.38550341 -1.7682838
5.270196 -0.06610807 -1.7360705
6.2002783 2.0993614 -1.6956896
4.223217 0.77703524 -1.781486
5.6602068 -0.0186565 -1.7214766
4.638381 0.66310149 -1.7667539
4.3300319 1.8286204 -1.772874
4.8506393 0.096155234 -1.7474198
4.453496 1.9572494 -1.7525672
4.771276 0.38741541 -1.7563648
4.7926912 1.865904 -1.7456913
4.9076223 1.0492096 -1.7609951
5.2069192 0.90895259 -1.741503
4.5788784 0.00039686001 -1.7673457
5.2757273 1.3636118 -1.7362101
4.3471961 1.0377482 -1.7663
4.5602665 0.13644357 -1.7603183
5.7470021 0.099759981 -1.7032049
4.270751 0.30136365 -1.7756724
5.4391508 0.75886738 -1.719915
4.696219 0.061896469 -1.7713442
4.2878013 1.254354 -1.7655029
4.4531169 1.504253 -1.772874
5.935976 0.14558044 -1.7002909
4.3157463 1.8386395 -1.769049
4.5937204 1.0297115 -1.7759345
4.3185163 1.494096 -1.7634416
4.4798737 1.6974791 -1.7578592
5.2506309 0.5381301 -1.7387866
4.3601751 1.3491948 -1.7610992
5.3668437 1.8459028 -1.7265311
4.952569 1.8627785 -1.74354
5.0338187 1.0454077 -1.744994
4.7830577 0.46420124 -1.763837
5.1942573 1.7715493 -1.7186167
6.139255 1.4893091 -1.6860245
4.3832822 1.2588439 -1.7595376
4.6848893 -0.078023903 -1.7667539
4.4184098 0.60893047 -1.7623147
4.3653979 2.0090847 -1.763837
4.5386772 1.5506341 -1.760101
4.5143576 1.7924005 -1.7496258
4.1821623 0.98208386 -1.7823164
5.1445551 1.900194 -1.7173187
4.2867861 0.019146141 -1.7781639
4.4576459 0.26767904 -1.7647058
4.6552539 1.793133 -1.749507
4.2829194 -0.048127171 -1.7765028
6.051064 1.9188964 -1.6949942
5.2660785 1.4338129 -1.7082316
4.2433805 1.9999948 -1.769049
5.6791658 0.94577456 -1.7062919
4.3283753 1.4595367 -1.7626607
4.3433132 2.0822721 -1.7683201
5.6698523 0.20399348 -1.7258992
5.4582705 0.44892973 -1.7147225
6.2379789 2.0034997 -1.6973242
5.3041697 1.2647898 -1.7375278
4.9594355 1.3263401 -1.7422045
4.5234346 1.7795538 -1.7510966
4.308897 0.48102006 -1.7566632
4.5516276 1.716723 -1.7525672
5.6538343 -0.089666083 -1.719581
4.9773521 1.8010455 -1.7442193
4.9691401 0.16440183 -1.7430449
5.475543 0.18278636 -1.7153715
5.6241417 1.9513007 -1.7050767
5.7719579 1.3437499 -1.6967015
4.3316784 0.25735649 -1.7582928
4.4724798 -0.06901747 -1.767894
5.7677073 1.361878 -1.6967015
4.770793 0.57676244 -1.763837
4.3834734 2.0008156 -1.7690673
4.1272736 1.2049338 -1.7839776
5.1015081 0.57427049 -1.7422045
6.0703692 0.94987249 -1.7095112
6.1550732 1.5135487 -1.6921911
4.5672727 -0.071415283 -1.7626607
4.2727933 1.2792091 -1.7623147
5.7498889 0.25354168 -1.7056744
5.4890733 1.7745543 -1.7099962
5.9434018 -0.031673659 -1.7020857
4.5996056 1.372331 -1.7615951
6.0837183 0.87379873 -1.7100933
5.4007039 2.0705528 -1.7149354
4.3125076 1.5224485 -1.7650032
4.3720856 1.3228567 -1.7626607
5.7780132 1.3260273 -1.6972997
5.9802203 2.0948467 -1.6916306
4.7041793 1.2679046 -1.7555084
5.4859304 1.4168046 -1.7233721
5.6055055 0.74309635 -1.719581
5.2374382 1.5039886 -1.7362101
5.9411778 -0.068985783 -1.7014875
5.9691944 1.3816818 -1.7042716
5.6680751 0.24851488 -1.7258992
5.3001704 1.2814461 -1.7375278
5.0814667 2.0326142 -1.7134241
4.6250973 1.2698548 -1.760101
6.0292921 2.0167131 -1.6977972
5.1377492 1.3194493 -1.7482934
5.9308062 0.41623908 -1.7026839
5.6618752 -0.054247461 -1.7221084
5.1107445 0.55901533 -1.744994
4.8550539 1.6568482 -1.7408094
4.3463435 -0.04926087 -1.7615516
5.4800777 -0.066759624 -1.7160206
5.4407549 0.68947339 -1.7173187
4.0967474 1.4081826 -1.7550339
5.7630553 0.018624229 -1.7081439
4.9603529 0.24213213 -1.7408907
4.6565442 1.3815644 -1.7496258
4.8674088 2.0703413 -1.742861
5.1072497 0.50191772 -1.7415068
5.4766059 -0.032321282 -1.7147225
5.5355783 1.6371489 -1.711231
5.5001211 1.3287119 -1.7208446
6.1483097 0.14312938 -1.7112576
4.1226578 1.1616392 -1.7765028
4.4726748 -0.054966431 -1.767894
4.0648565 2.1038566 -1.766565
4.8683295 0.0046362798 -1.7540379
4.7109332 1.182891 -1.7496258
4.8175178 1.806182 -1.7463887
4.8146749 0.72080767 -1.7540379
4.4839258 1.8623838 -1.7488904
5.6118493 0.64551008 -1.7176855
5.0848765 1.9216878 -1.731598
4.6900516 1.689052 -1.748071
4.3479347 0.066844627 -1.7623663
4.1249504 1.7251716 -1.767097
4.8577518 2.1023924 -1.7442193
5.1904593 1.6149269 -1.731598
4.2738829 0.35556445 -1.7789944
5.2237887 0.79394448 -1.740824
6.1216846 0.66436565 -1.7135864
4.5985641 1.3562719 -1.7593538
5.9894152 1.3270535 -1.7066001
6.0890884 0.83555299 -1.7100933
6.0917926 0.92390889 -1.7147508
4.2649069 0.37510586 -1.7756724
4.8558745 1.2068207 -1.7552512
4.1645699 1.054198 -1.7823164
5.7348299 1.5168312 -1.6984963
4.5915122 1.01411 -1.7736391
4.435245 1.5449606 -1.7713442
4.3526688 1.7740638 -1.772874
4.2548323 1.615664 -1.7556336
6.12184 0.64492208 -1.7130042
5.9026942 1.7331905 -1.71184
4.4217649 0.63768333 -1.7655029
5.1614976 1.0944403 -1.7381076
5.3385653 1.230733 -1.7153715
4.4563055 0.22549142 -1.7631118
5.9809589 1.3646576 -1.7066001
4.5170236 2.1261418 -1.7509432
5.2222924 1.6809514 -1.7179676
4.1758657 1.2259431 -1.763996
4.0991902 1.4234853 -1.7582928
4.2760239 0.17372395 -1.7748415
5.9485354 0.089752309 -1.7038804
4.8355966 0.3700203 -1.7466846
5.4260077 0.67020839 -1.711477
4.408484 0.73505253 -1.7663
4.8278923 1.3213912 -1.7559692
5.6375737 1.1495129 -1.705057
5.7563586 0.23573701 -1.7075266
5.6052222 1.2811493 -1.7038224
4.2295132 0.70973122 -1.7789944
4.6041965 0.96393061 -1.7744042
4.3657789 2.0259483 -1.7668254
5.5782914 1.4702474 -1.7099962
5.9356399 -0.050247151 -1.6996927
4.3514767 0.073756829 -1.763996
5.8253627 1.9415927 -1.7083468
4.6050692 1.5734956 -1.7533023
4.6562395 1.4212972 -1.7540379
4.8392615 0.53122866 -1.7540379
5.2756057 -0.082725137 -1.7381076
5.5188117 1.6132475 -1.7038224
4.727304 1.139719 -1.751832
6.1486006 0.20113932 -1.71184
4.5094047 0.69275701 -1.7603183
5.1247149 1.2475199 -1.7374285
4.3013797 0.0056105498 -1.784808
5.681819 1.7441223 -1.7020857
4.490243 1.7582909 -1.7705616
5.3083296 1.2305998 -1.7362101
4.5119734 2.1585529 -1.7545331
5.4339805 0.45361215 -1.7375278
4.2739244 1.9248812 -1.7675189
4.8282547 0.63774669 -1.7547731
4.4952669 1.719612 -1.7668254
4.2562141 0.4959293 -1.7773333
4.7381849 0.73203111 -1.7593538
4.4211116 0.5457651 -1.7599236
5.0475488 2.1560907 -1.7500464
6.1324768 1.5797168 -1.6905093
4.7518587 0.70365614 -1.7630897
5.7318821 1.5353245 -1.6990945
5.8925505 0.73133409 -1.7002909
5.3971014 0.7510252 -1.7362101
4.3452225 1.4729441 -1.7712498
5.2460012 0.34665722 -1.731317
4.6692405 0.55551159 -1.7736391
5.1833258 1.0058324 -1.7394656
4.5618796 1.5107542 -1.763837
5.7555485 0.14517783 -1.7062919
5.055377 1.4774481 -1.7347121
4.9583979 1.8472066 -1.74354
4.3522282 0.12166159 -1.7648107
4.8627515 -0.00297716 -1.751832
5.4408307 1.9401504 -1.7124659
4.6700239 1.4014366 -1.7569792
5.435585 0.53980047 -1.7408222
4.4497843 1.0317473 -1.7626607
4.9811664 0.01612493 -1.746635
5.2676287 0.10769515 -1.7353915
4.3014221 1.5643004 -1.766565
5.2504244 0.52143693 -1.7381076
5.6655974 0.061398149 -1.7233721
5.3501 1.0730995 -1.7388456
5.3726158 1.8290346 -1.7265311
5.4391341 0.52289152 -1.7414811
4.6112618 0.92014384 -1.7736391
4.8790593 1.5968579 -1.7422045
5.6959052 0.99471003 -1.7143179
5.0850611 1.9582883 -1.7362101
5.4888883 1.7935858 -1.7118484
5.4834118 0.096882187 -1.7173187
5.7129097 1.5688225 -1.6961033
5.0219641 1.6844941 -1.7455773
5.6653705 0.26623899 -1.7252674
4.5103211 2.1403232 -1.7509432
5.069159 2.0348454 -1.7408222
4.7884102 0.35861498 -1.7623425
4.8361034 1.1856593 -1.7459172
4.5323629 0.41431111 -1.7556336
4.4195213 2.0593636 -1.7569792
5.2792244 0.091396824 -1.7394656
4.4429412 1.0448573 -1.7610992
4.3044949 0.56289297 -1.7591076
4.9271526 1.4681191 -1.744994
5.2736664 1.3102576 -1.7309391
4.2073054 0.87703651 -1.7831469
4.5235353 0.56452006 -1.7587566
4.1926804 1.067848 -1.7525897
4.2252312 0.85303068 -1.7889606
5.4246497 0.73939478 -1.7140732
5.3252306 1.1729565 -1.7375278
5.1289644 0.17218404 -1.7415068
5.9121242 0.50841218 -1.6990945
4.2493987 1.9784364 -1.7675189
5.3883376 1.0212761 -1.7173187
4.8519182 0.22586356 -1.7496258
4.0959411 2.0632236 -1.7704688
4.5071607 0.67065644 -1.7579758
4.3364644 2.0621712 -1.7623425
5.60816 1.3190063 -1.7075266
4.4698782 1.9476483 -1.7569792
4.7287636 1.0930674 -1.7481551
5.5100188 1.303637 -1.7221084
5.610064 0.70785832 -1.719581
4.2934461 -0.075294353 -1.781486
5.8481569 1.8273981 -1.7042716
4.2344518 0.97296971 -1.7607369
4.8036737 -0.00308717 -1.7630897
4.7532024 0.98135769 -1.7481551
5.665813 -0.03650286 -1.7233721
4.7741952 0.47844669 -1.760848
4.7264171 0.83704454 -1.7615951
4.2720532 0.41627884 -1.7806554
5.9294696 0.4348692 -1.7026839
6.0909061 1.7540289 -1.6921911
5.6602373 -0.00087544002 -1.7214766
4.0023408 1.5906459 -1.7872996
4.2869215 0.32947633 -1.7839776
5.0516877 0.89282757 -1.7408094
4.4887619 0.80552405 -1.7595376
4.3117456 0.39917958 -1.7542192
5.8821092 0.67388982 -1.6949068
4.9676085 0.31299409 -1.745199
4.2628675 0.51702011 -1.781486
4.5965815 1.5867592 -1.751832
5.1558204 1.8859984 -1.7192661
4.3691754 1.3069646 -1.7595376
5.4498467 0.56049174 -1.7153715
6.1433916 0.23960239 -1.7106755
5.1601562 1.1792318 -1.7442193
4.6555548 1.145458 -1.7593538
4.8641672 0.065782078 -1.7525672
4.5080194 0.59851354 -1.7540718
4.3176937 0.35190633 -1.7550339
5.9129157 0.4991264 -1.6990945
4.4133353 1.1779449 -1.7626607
4.4482465 0.23913911 -1.7599236
5.1271138 0.22051503 -1.7415068
4.7371798 2.0266001 -1.7491784
5.7634006 1.37999 -1.6967015
4.6611772 0.71108657 -1.7789944
5.432014 0.20513457 -1.731598
4.5645976 2.0357723 -1.7530971
4.8291883 0.4459289 -1.7466846
4.800611 0.34442744 -1.7668254
5.8342819 1.0618719 -1.697898
4.8178635 1.2941817 -1.749507
4.3560414 2.0380623 -1.7653313
4.9549432 0.5948782 -1.7502251
6.1244469 0.53835076 -1.7106755
4.8014951 -0.055894919 -1.7623425
5.3997288 0.81195319 -1.7401633
4.6244745 1.4914517 -1.7503611
4.9028063 1.9950669 -1.7442193
4.5540514 1.5399916 -1.7645841
4.1857524 1.1647866 -1.7607369
5.7008262 1.6330949 -1.697898
4.5744448 1.4355224 -1.7593538
4.1431756 1.9580488 -1.7689072
6.1398964 0.31678164 -1.7106755
4.2494631 0.87848169 -1.7582928
4.9427629 1.9304081 -1.7489728
5.0023093 1.1624656 -1.7429018
5.9741273 1.4026555 -1.7071823
5.9259181 1.5793028 -1.706018
4.736115 1.531116 -1.745199
4.8641891 -0.064117923 -1.7525672
5.4403834 0.30816659 -1.7362101
5.4039392 0.70012653 -1.7362101
4.9644322 0.4304558 -1.7473531
5.1130071 1.3473104 -1.742182
4.39252 1.2466062 -1.76188
4.6048245 1.933446 -1.7516611
4.247005 0.58296865 -1.7781639
6.2252274 1.1926013 -1.6921911
4.1870584 0.92792279 -1.7789944
6.124742 1.6394005 -1.6927516
4.971777 0.27407944 -1.7459172
4.4113417 2.0724571 -1.7562438
5.2682009 0.07459563 -1.7353915
5.4570346 0.24029584 -1.7408222
4.197072 1.8166341 -1.7650032
4.7293177 1.628132 -1.7545331
4.6981387 -0.056173611 -1.7721092
5.1068811 0.54239124 -1.7429018
5.9362478 0.2015748 -1.7008892
4.8058653 0.70412064 -1.7496258
6.035851 1.1692619 -1.7106755
4.786665 0.40389591 -1.7630897
4.586915 1.4078574 -1.760848
5.4823418 0.019341649 -1.7166696
5.9460936 1.5248301 -1.7077647
4.4668884 1.4389247 -1.769814
4.8631644 2.122972 -1.7489728
5.8642516 1.85277 -1.7112576
5.207077 1.739488 -1.7192661
5.1112862 0.43754974 -1.7408094
4.8770962 0.99449795 -1.745199
4.4589839 1.4984145 -1.7744042
4.6997433 2.1073878 -1.748481
5.6014509 0.91330016 -1.7265311
5.6634793 0.079177901 -1.7227402
5.7702742 0.1637578 -1.711231
4.0784717 1.3951019 -1.7889606
4.8214073 1.790396 -1.7456913
5.4188271 0.55540448 -1.7355512
5.6677608 1.8082056 -1.7038804
5.9187522 0.39676988 -1.6984963
5.1290116 0.099633351 -1.7408094
5.7465487 0.35297728 -1.7062919
4.8631406 1.103613 -1.7487891
4.6152501 1.3455192 -1.7645841
4.3103871 0.46747971 -1.7566632
5.0327525 1.609259 -1.740824
5.4310231 0.48774889 -1.7375278
5.4603915 1.4469473 -1.7176855
5.3324952 1.1394737 -1.7375278
4.1570721 1.8931011 -1.7626607
4.456933 1.8264657 -1.7683201
4.772471 0.92292613 -1.7510966
5.1148829 0.34090194 -1.7394147
5.6043878 1.3833745 -1.711231
4.7102051 1.6546737 -1.7509432
5.4037118 0.80577654 -1.7101786
5.1182899 0.067314267 -1.736625
5.269619 0.17402261 -1.7367495
4.5934982 1.3862278 -1.760848
4.0321975 1.9531823 -1.7710823
4.4339786 0.57556105 -1.767097
4.7813177 0.32783872 -1.7586067
5.4121733 0.64937919 -1.7368689
4.2763858 0.70332485 -1.7558484
5.9208269 0.51849419 -1.7020857
5.852941 1.8694161 -1.7095112
5.5199032 1.6892465 -1.711231
4.2375431 0.63603032 -1.7773333
4.0735798 1.457675 -1.7525897
5.0964046 0.66302246 -1.7442966
4.1531596 1.2761335 -1.7607369
4.8590536 1.0705681 -1.7444811
5.9926772 1.3475729 -1.7089288
5.2743688 0.14102837 -1.7381076
4.1403327 1.152499 -1.7831469
4.5039725 0.7499941 -1.76188
4.3030605 -0.034954019 -1.7856385
4.9673915 -0.085432231 -1.7416091
4.2428246 0.96090508 -1.7631812
4.3299184 0.22311598 -1.7566632
5.2295594 1.7015051 -1.7225112
4.5279303 1.2953067 -1.7766993
4.8303666 1.2164853 -1.746635
5.1174026 0.30071968 -1.7394147
5.726697 0.51457757 -1.7038224
5.4545994 0.04300892 -1.7381867
4.1917591 1.607779 -1.7750676
5.7608294 0.06385646 -1.7075266
4.3297052 0.14132389 -1.7550339
4.2101645 1.058319 -1.7591076
4.7063928 0.21734765 -1.7774643
5.4746923 0.14831837 -1.7147225
4.7489944 1.5518768 -1.7523789
6.1524949 0.36596739 -1.7153331
5.6633573 1.0256177 -1.7056744
4.7662024 0.90623671 -1.7474198
4.5606332 0.28727514 -1.7634416
5.3137574 1.9499404 -1.7214766
5.2607245 0.47246304 -1.740145
4.8682046 0.035225078 -1.7540379
5.6634049 0.97054601 -1.7025875
4.6736913 1.7498434 -1.7502251
4.9873061 1.2252339 -1.7429018
5.9129663 1.6557367 -1.7083468
4.8812518 1.011367 -1.748071
4.2863646 0.18756691 -1.7798249
5.2486038 1.4715543 -1.7368689
5.0756612 0.78235865 -1.7429018
4.8860807 1.0605692 -1.7538152
5.6758752 0.32031119 -1.7296904
4.8424482 0.40111196 -1.7503611
4.8569102 0.05046168 -1.7496258
5.5567265 2.1357298 -1.7050767
4.6010971 0.93319821 -1.7705791
5.1386371 1.8613076 -1.7108279
4.6593056 0.49512744 -1.7667539
4.3664398 1.3662443 -1.7657841
5.5919509 1.9796811 -1.6984963
4.4626484 1.8124555 -1.7683201
4.446701 0.14810973 -1.7575325
4.0093946 1.6739184 -1.7607369
5.2678118 0.2983565 -1.7381076
4.8434582 1.1552472 -1.7459172
4.2016392 1.5289425 -1.767097
5.2131672 1.5860718 -1.7362101
4.8430181 0.41647384 -1.7510966
4.9447188 0.56995934 -1.745199
5.0706458 0.81423253 -1.7429018
4.2848864 0.64953125 -1.7558484
4.9100852 1.5051528 -1.7429018
6.1589656 0.27904949 -1.7159152
4.2908874 1.2698587 -1.7686912
4.8019452 0.18558832 -1.763837
5.3738837 2.1185372 -1.7124659
5.0379262 0.99685615 -1.7429018
4.172276 1.5555891 -1.7591264
6.0051117 1.291032 -1.7089288
5.3628416 1.1656026 -1.7186167
4.159163 1.6707287 -1.7718792
4.4651475 0.95431548 -1.76188
4.9015117 1.5701121 -1.7470863
6.0880003 1.8050387 -1.6955547
5.218339 1.6434908 -1.7127751
6.1043329 0.80840665 -1.7135864
5.6555791 0.42629963 -1.7252674
4.7153802 1.6398691 -1.7509432
5.1158028 0.40556487 -1.7415068
4.1933651 1.5408888 -1.7655029
5.0645604 1.4456524 -1.7347121
4.5019398 1.3186333 -1.769049
4.5606179 0.17949922 -1.7610992
4.8002 0.37474069 -1.7675728
4.4342637 0.46269524 -1.7615176
4.1579742 1.0943053 -1.7839776
4.5951567 0.88707215 -1.7644588
4.6721277 0.40018237 -1.7682838
4.089479 1.3275602 -1.7839776
5.7397623 0.42501011 -1.7056744
5.2766662 0.12451153 -1.7387866
5.7711897 0.12750131 -1.711231
5.6503181 0.30118722 -1.7208446
5.4964933 1.7388662 -1.7087615
4.4255638 0.62403518 -1.7663
5.4518189 0.57802582 -1.7166696
5.8977103 0.6006608 -1.6972997
5.0074916 1.7499828 -1.7482934
4.7689576 0.59174663 -1.763837
4.2325029 1.4356018 -1.7663
4.5206547 0.68000895 -1.7642223
5.1737676 1.8191525 -1.7173187
5.1984849 0.92429221 -1.7394656
4.7210641 0.86672771 -1.7615951
4.077096 1.8576405 -1.7710823
5.246387 0.73011851 -1.7455773
4.3308825 0.29830357 -1.7591076
4.9160347 1.4985135 -1.7442966
4.3324218 0.20961212 -1.7574779
5.4195743 0.2729485 -1.7283036
4.641439 0.69328409 -1.769814
4.5416889 2.0684314 -1.7502251
5.5567865 1.0772246 -1.7214766
5.1958094 1.7903569 -1.7212131
4.4455266 0.44265112 -1.7655029
5.6763124 1.7619624 -1.7020857
4.7953367 0.7488305 -1.7481551
4.2753086 0.28816664 -1.7773333
4.0961022 1.8198682 -1.7718792
4.4585156 0.17647918 -1.7631118
4.9190612 0.74790382 -1.7444811
5.2099676 0.83372146 -1.7381076
4.7906742 0.01190035 -1.7578592
4.6203218 1.5221944 -1.7525672
4.3423123 1.4871936 -1.7720306
4.2310162 2.0430772 -1.7721092
5.7603149 0.10005131 -1.7075266
4.1980782 1.8327951 -1.7681264
4.0929775 1.4357425 -1.7574779
5.5842028 2.0462391 -1.7032821
5.3211012 1.9242374 -1.7208446
5.7709818 0.13656595 -1.711231
5.5261865 1.1979747 -1.719581
4.9130917 1.9543852 -1.742182
4.2010627 1.7792463 -1.7603183
4.6225266 1.855944 -1.746635
5.7780533 -0.053869419 -1.7130833
5.7187767 0.63183665 -1.705057
4.0097184 1.6444762 -1.7558484
5.1293001 0.083519652 -1.7408094
4.2367029 0.98754478 -1.7631812
6.0551529 1.0647982 -1.7106755
4.5015941 0.76414126 -1.76188
5.7336745 0.54249525 -1.7069092
4.8355498 0.47712666 -1.7503611
5.5373101 1.5904194 -1.7075266
5.0995584 0.55784905 -1.7408094
4.3429661 0.0053329798 -1.7599224
5.7554636 0.44443396 -1.711231
5.5792389 0.8469615 -1.7157899
5.5204039 1.2330784 -1.7202128
4.9779682 1.2395662 -1.7408094
4.8785906 2.0389807 -1.742182
5.2569408 2.11869 -1.7240039
5.5605555 1.5782931 -1.7137005
4.4065771 1.9448154 -1.7683201
5.1280718 0.13991305 -1.7408094
5.0950093 0.58167326 -1.7401121
4.7762322 1.4207336 -1.7473531
5.6926661 1.7083877 -1.7020857
4.3456993 1.0518225 -1.767097
6.079999 0.91229594 -1.7106755
5.0699573 2.1304801 -1.7225112
5.2196999 1.7073306 -1.719915
5.9349442 0.18287416 -1.7002909
4.0179553 1.5098869 -1.7806554
4.3447547 0.01899568 -1.7607369
4.4776797 0.82529449 -1.7564143
5.4673805 0.19967422 -1.7127751
5.3270488 1.2633615 -1.7140732
5.0681601 0.7568236 -1.7387174
5.6071501 1.356037 -1.7099962
5.1116486 1.2613188 -1.7340331
4.7849498 -0.040759709 -1.7556177
5.3552985 1.0566438 -1.7395043
4.6458154 1.2286266 -1.763837
4.2353163 0.69701022 -1.7806554
4.4309258 1.0714236 -1.7587566
5.9301529 1.6004422 -1.7089288
6.1290708 0.68469626 -1.7164974
4.4199991 1.8764546 -1.7623425
5.2615728 1.3953075 -1.7342335
4.5370522 2.1008909 -1.7538152
5.2629824 -0.03298334 -1.7333541
4.6756754 0.07643187 -1.7629286
5.6734142 0.03470692 -1.7258992
5.0475159 2.0631275 -1.7375278
5.2869372 1.2958857 -1.7342335
4.8982382 0.86325455 -1.743763
4.5447693 2.0525999 -1.7487891
4.1298971 1.1287534 -1.7756724
4.2593684 1.3778441 -1.7694881
4.0526247 1.457779 -1.7872996
4.5360661 0.37157688 -1.7556336
4.2582111 0.77609158 -1.7534044
4.5292063 0.42836401 -1.7548528
4.2994728 1.871752 -1.7682838
5.1842752 1.0398945 -1.742182
5.009594 1.1475642 -1.7442966
5.6376748 1.1772593 -1.7069092
5.1958752 1.6973871 -1.7421401
4.7704892 0.5311262 -1.7615951
4.3642759 1.7152311 -1.7682838
4.5925856 1.9623411 -1.7516611
5.1362543 1.9062726 -1.7153715
4.6923966 -0.070817754 -1.769814
4.6845016 0.098606437 -1.7667539
4.1315894 1.3265141 -1.7582928
5.4325686 0.72312587 -1.7160206
4.2832851 0.24814363 -1.7798249
5.4706693 0.29455152 -1.7153715
5.6628098 1.0071334 -1.7044398
5.3344312 1.1573943 -1.7395043
4.7950392 0.84157503 -1.7540379
4.7615337 0.56041169 -1.7593538
5.2512403 1.5816652 -1.7173187
4.3184133 2.145968 -1.7705616
4.2744436 1.6001824 -1.7610992
4.0095835 1.6591899 -1.7582928
4.8476653 0.19517872 -1.7474198
4.6824083 0.43064404 -1.7736391
4.3534245 0.95295435 -1.7607206
4.5315423 0.47895429 -1.7579758
6.0119996 2.0320003 -1.6944335
5.5528765 1.0674462 -1.719581
5.1061502 0.45329264 -1.7394147
6.1571646 0.075644113 -1.7135864
4.6335196 1.209721 -1.7571121
5.0340128 2.0761268 -1.7348922
4.2243361 0.79094625 -1.7831469
6.220643 2.062814 -1.6978688
5.0910783 0.76829779 -1.7477837
5.427897 1.6316267 -1.7240039
4.1590228 1.038957 -1.7781639
5.3183365 1.3232558 -1.7160206
4.5556397 0.16493949 -1.7587566
4.7243533 2.0563228 -1.7491784
4.2876782 0.23486394 -1.781486
4.5335097 1.7588784 -1.751832
4.8373985 0.25572738 -1.7444785
5.4211822 0.79105371 -1.7153715
4.1071787 2.036622 -1.7696881
3.9946678 2.0288332 -1.7710823
4.5376339 1.122667 -1.7621636
5.7301521 0.57851326 -1.7069092
5.0379319 1.7252852 -1.7557633
4.4620404 0.33830392 -1.7686912
4.2956653 0.22172469 -1.784808
6.1461492 -0.00177814 -1.7100933
4.8488302 1.7315321 -1.7477837
4.2611337 0.79049629 -1.7558484
5.6345778 0.78284544 -1.7309541
5.5798211 0.92786539 -1.7202128
4.3335619 1.07057 -1.7639087
6.2059855 1.2699807 -1.69107
4.3089728 1.1656039 -1.7639087
4.6286516 0.9084205 -1.7797594
4.4641938 0.97615218 -1.7634416
6.0677004 0.89090389 -1.706018
5.102427 0.61496174 -1.7442966
5.3683124 0.9457981 -1.7368689
4.2390862 2.030561 -1.772874
5.1990795 0.89912438 -1.7381076
4.6401415 1.2427295 -1.7630897
4.5637841 0.057665221 -1.7610992
4.2148018 1.024336 -1.7574779
4.8506546 0.16477133 -1.7481551
5.2518444 2.1262405 -1.7233721
4.6947455 0.017637281 -1.7705791
5.4291897 0.41891766 -1.7348922
4.8449821 0.28661627 -1.7481551
5.0649757 2.1471481 -1.7231605
5.1278486 0.051280562 -1.7401121
4.9721441 0.12542644 -1.743763
4.9856763 0.21995164 -1.7502251
4.3179874 1.1389641 -1.7647058
4.1621795 1.8638972 -1.7595376
4.2038965 1.7961037 -1.7642223
4.7503767 0.68817335 -1.7615951
4.998426 1.2112899 -1.7456913
5.4473877 0.37723637 -1.7401633
4.1727314 1.5856212 -1.7639087
5.2677588 1.3792415 -1.7348922
5.2542658 0.36383229 -1.7347121
4.7950239 1.8495078 -1.7442966
4.290689 0.62286866 -1.7566632
5.0305099 1.0612158 -1.744994
5.9669414 2.1323776 -1.6916306
5.8876061 0.74012917 -1.6990945
5.8702745 0.81304175 -1.6967015
5.3921437 0.96941763 -1.7153715
4.2957525 1.2201502 -1.7647058
4.7864366 0.072021931 -1.7563648
4.0007091 1.6045451 -1.7889606
4.4630723 -0.082844213 -1.7639087
5.7683439 -0.07194566 -1.7099962
4.700345 1.0088161 -1.7645841
4.0414772 1.5041249 -1.7897912
4.9601612 0.28119823 -1.7416091
4.4257526 1.0848913 -1.7579758
5.1451387 1.8342618 -1.7408222
4.5551515 0.1219371 -1.7579758
4.436811 0.45590666 -1.7623147
4.8316512 1.2491949 -1.7502251
6.114429 0.7902385 -1.7159152
5.6168709 1.2467489 -1.705057
5.3858061 1.79583 -1.727163
4.7554517 0.7654466 -1.7683201
4.1934004 2.0903754 -1.7667539
5.5140271 1.6495491 -1.7056744
5.7350841 0.46090513 -1.705057
4.5635161 0.237112 -1.7634416
4.2184687 0.76251155 -1.7781639
5.405405 2.0528927 -1.7143179
4.5232191 0.68768299 -1.7657841
4.7402196 0.77820832 -1.7630897
5.8894448 0.69343877 -1.697898
5.8374476 1.9049492 -1.7083468
4.6564846 0.58374023 -1.769814
4.6862445 0.28294897 -1.7705791
4.8835244 1.0278778 -1.7502251
4.1291361 1.9832362 -1.7681264
6.0052629 1.281191 -1.7083468
4.7049818 1.2286202 -1.751832
5.094296 0.67903149 -1.7442966
5.2009177 0.86580586 -1.7367495
4.5203052 2.1103444 -1.749507
4.4644051 0.10649218 -1.7647058
4.0336523 1.5301218 -1.7906216
4.7975845 -0.070943251 -1.760848
4.7758784 0.8537789 -1.7474198
5.9859929 2.0547643 -1.6893882
6.1513152 0.38529423 -1.7153331
4.4476266 0.28115666 -1.7607206
4.2606392 1.9673717 -1.769814
4.6624656 1.4071887 -1.7547731
6.0505028 1.8562275 -1.6893882
4.2018971 0.94495821 -1.7872996
5.7690144 2.0750191 -1.7054359
4.538125 0.4508574 -1.7595376
6.0260863 1.9527887 -1.69107
4.6129236 1.3133899 -1.760101
4.5627098 1.1135451 -1.7713442
6.2346082 1.1740794 -1.6938728
4.8378549 1.7619644 -1.7477837
4.3500519 1.0096046 -1.7647058
5.4044809 0.66571188 -1.7348922
4.7071943 1.1976843 -1.7496258
5.5268121 1.6061945 -1.7056744
4.7480884 1.9960778 -1.748481
4.3017945 0.58316994 -1.7591076
4.5444703 1.7303605 -1.751832
5.2329502 0.64451271 -1.7367495
5.1074929 1.8935883 -1.7355512
4.7772274 0.27477884 -1.7556177
4.2447691 0.4676688 -1.7706892
6.1634355 0.40555289 -1.7194085
5.9081097 1.7146393 -1.71184
5.7269459 0.53274965 -1.7044398
4.1609712 1.6111557 -1.7631118
4.3640308 1.730948 -1.7705791
5.3141537 1.3399565 -1.7160206
4.1326032 1.3412092 -1.7607369
4.6864095 2.1368761 -1.748481
5.3062763 1.2476976 -1.7368689
6.1799612 1.4171009 -1.6927516
5.6179829 1.9689616 -1.7050767
5.4472098 -0.0083550997 -1.7355512
6.1523261 0.29809505 -1.7141685
4.657383 1.777151 -1.748071
4.3425145 -0.06288401 -1.7599224
4.7888618 0.13228631 -1.7578592
6.1368766 0.48123673 -1.7130042
5.4118299 2.035897 -1.7143179
4.2117128 1.7682076 -1.7626607
4.5114589 0.6278832 -1.7571951
5.1154165 1.9720427 -1.7166696
4.9415298 0.65632987 -1.748071
4.6940389 1.2336929 -1.7481551
4.3058262 0.093523368 -1.7872996
5.3746166 0.96428311 -1.7401633
4.9743795 0.10985638 -1.7444811
5.327312 1.2457418 -1.7127751
5.0522709 0.94206917 -1.7442966
4.8257122 2.1426775 -1.7394656
4.2408781 1.6871293 -1.7610992
6.0711303 0.96955949 -1.7106755
4.7450156 0.74840909 -1.7630897
5.4384933 0.64579058 -1.7147225
5.5576062 1.0321972 -1.7189492
4.2110953 0.80223483 -1.7781639
4.8210053 0.62143654 -1.7510966
4.8741837 1.1223133 -1.7545331
5.6230135 1.9311755 -1.7026839
4.4054041 1.6440251 -1.7736391
6.1370783 0.56868219 -1.7153331
5.9175529 0.32207716 -1.6967015
5.3965068 0.98775172 -1.7179676
4.5572352 0.25111219 -1.7610992
4.2281899 1.7284355 -1.7626607
4.575593 2.0062952 -1.7523789
4.7958026 1.3938797 -1.7516611
4.5052438 1.8052081 -1.7481551
4.5834379 0.094037123 -1.7696881
4.7474174 1.5019022 -1.7459172
4.2552829 1.3178222 -1.7599236
5.7461147 0.38921165 -1.7069092
5.0977998 0.60631073 -1.7422045
4.5573926 1.1578301 -1.7736391
4.2995572 -0.0078874798 -1.7839776
5.4515805 0.54336888 -1.7153715
4.5799475 1.0569322 -1.772874
4.4371815 0.47002476 -1.7631118
4.337368 0.032546401 -1.7574779
5.707293 1.5962337 -1.6967015
4.5430593 1.1391134 -1.7659888
5.5847964 2.016696 -1.7002909
5.4006248 0.87486029 -1.7127751
5.4171062 0.60685509 -1.7368689
5.4349403 0.59343517 -1.711477
4.9978895 0.031968471 -1.7530971
5.7585869 2.1534498 -1.7106755
4.4096131 1.1918031 -1.7626607
5.6689258 1.779222 -1.7014875
5.2000256 0.88246375 -1.7374285
4.1024027 2.0503466 -1.7704688
4.7681398 0.87562168 -1.745949
6.1162243 0.62487644 -1.7106755
5.0001984 1.76507 -1.7476144
4.7181787 1.121919 -1.7466846
5.6100755 0.62747067 -1.7164217
5.75807 0.11810316 -1.7069092
6.2307458 2.0444736 -1.6989586
4.2864313 0.66356915 -1.7574779
4.3908458 0.88180315 -1.7702854
4.2879357 0.31600574 -1.7839776
5.4372616 0.43668184 -1.7381867
4.5692677 2.0206592 -1.7523789
5.4413242 0.29107475 -1.7362101
4.6071348 1.5500275 -1.7510966
6.1235876 1.6803536 -1.6955547
5.2648306 0.48953778 -1.742182
6.504159 -1.6352183 -1.6863513
7.2952456 -2.1155827 -1.6979055
6.3191123 -0.73291153 -1.6989183
7.1338053 -0.9345535 -1.6865759
7.4539776 -1.5397753 -1.701695
7.7813954 -1.1475588 -1.6715732
6.4476304 -1.3262162 -1.7060416
6.4718165 -1.845143 -1.6927116
7.3857913 -1.757089 -1.6969584
6.9342346 -0.39979029 -1.6874726
7.2850285 -2.0878932 -1.6936429
7.7167878 -1.5124624 -1.6711211
7.8191199 -0.51914042 -1.6647955
6.896101 -0.60459542 -1.6813164
7.4527197 -1.4058056 -1.6950637
7.345973 -1.8700455 -1.6941165
7.9592037 -1.3397382 -1.6781796
6.8581815 -1.2375652 -1.693629
6.5634069 -0.47658846 -1.7054968
6.600853 -1.1071942 -1.6826411
7.1555972 -0.50574356 -1.681121
6.2825241 -2.1083937 -1.7185732
7.8799314 -1.737537 -1.6777374
6.7771835 -1.7360722 -1.7008111
7.472393 -1.3851662 -1.698853
6.3151121 -0.81301981 -1.7006001
7.1373696 -0.45932791 -1.6756659
8.2232218 -1.0748628 -1.6511035
7.5136218 -1.0175149 -1.6945901
7.1263437 -0.85392082 -1.6821127
7.7851152 -1.1356227 -1.6720247
6.7826037 -1.7147723 -1.7008111
7.6106954 -2.2270772 -1.6864834
7.8132958 -0.23572505 -1.6602774
6.5000539 -0.89546162 -1.7000483
7.7783599 -1.0722682 -1.6684102
7.9974246 -0.65692741 -1.6675647
6.6921272 -2.1933718 -1.7131238
7.6226401 -2.0624547 -1.6788023
6.8418999 -1.3347565 -1.6941419
8.279788 -0.16573124 -1.6485554
6.5158434 -0.83510959 -1.7022277
7.6844506 -1.758515 -1.6756395
6.5788255 -0.15655038 -1.7054968
7.1008887 -0.19968438 -1.6632682
7.9167643 -1.5510367 -1.6772951
6.3619828 -1.7634288 -1.7114903
6.8939466 -0.66992134 -1.6823423
7.9881334 -0.71937704 -1.6666802
8.0036554 -0.37969995 -1.6649109
6.4501696 -1.2845737 -1.7044072
6.3319759 -0.42336723 -1.6944335
7.3463154 -1.9686631 -1.700274
7.4372344 -1.6095531 -1.7012212
8.2700453 -0.24349852 -1.6468565
6.563046 -0.51400495 -1.6524301
6.9216328 -0.25747114 -1.6823423
6.7819719 -1.6693925 -1.6977332
8.2730198 -0.45192909 -1.6494048
6.9230103 -2.0696733 -1.6945105
6.7530279 -1.9004267 -1.7059414
8.1408567 -1.8029836 -1.660872
6.9801359 -1.8148003 -1.6910392
7.8001609 -0.56708151 -1.661181
6.566186 -1.4656731 -1.6921813
7.9770913 -0.9717747 -1.6702185
6.9983754 -1.7026128 -1.6885595
7.7406836 -1.3285571 -1.6688619
6.4723368 -1.0893408 -1.7005931
7.9964199 -0.20330921 -1.661815
8.2454615 -0.74991006 -1.6481305
8.004282 -0.64481217 -1.6688917
6.6386313 -2.3153393 -1.7100456
6.35567 -2.2298679 -1.6943015
6.2746215 -2.1496758 -1.7202078
6.6239495 -0.78178012 -1.676281
7.8508329 -1.9391663 -1.6817179
7.5009823 -0.74121416 -1.6836959
6.8855062 -2.2605028 -1.6999656
7.7663317 -1.1952214 -1.6697655
7.0365458 -1.5372607 -1.6885595
7.0512719 -1.3902079 -1.6845924
6.3371062 -0.4037337 -1.6955547
7.8107448 -0.39542291 -1.661181
7.8347073 -2.026819 -1.6830448
6.4216475 -1.4899647 -1.708766
6.5387669 -1.4378724 -1.6831712
7.0248594 -1.5810091 -1.6880637
8.2655516 -0.19138086 -1.6455824
6.9256949 -0.55231959 -1.6879855
6.3371873 -0.25398189 -1.6933124
6.3506002 -2.2730424 -1.6969516
6.3892274 -1.6847943 -1.7131248
6.9287667 -0.81624281 -1.6956811
7.524806 -0.94689256 -1.6950637
7.9864945 -1.1387614 -1.6772951
7.1563678 -0.64160562 -1.6840963
7.3345933 -2.0770264 -1.7045369
7.0518031 -1.3672978 -1.6836004
6.9127254 -0.17023136 -1.6792643
6.3575158 -0.31493244 -1.7000395
7.497509 -0.99142396 -1.6898534
6.4805398 -1.1325765 -1.704952
6.8163114 -1.3743441 -1.6895247
7.4027381 -1.859567 -1.7069052
6.5222554 -0.81509751 -1.7033174
6.9608531 -1.8799928 -1.6905432
7.7594881 -1.3569721 -1.6742839
7.0724783 -1.1876861 -1.680625
7.9958196 -0.14047563 -1.6613728
7.9764123 -0.78154361 -1.6653534
7.4755235 -0.96471822 -1.6836959
6.5398383 -0.59904134 -1.7016829
6.580225 -0.17726056 -1.7060416
7.1465526 -0.1562002 -1.6746742
6.3230171 -0.38283017 -1.69107
7.8611631 -1.8633138 -1.6799488
8.1762562 -1.703375 -1.6638452
6.2667375 -1.048187 -1.696676
7.5133686 -0.39819753 -1.6803803
7.9830542 -1.0488955 -1.6737567
8.4629288 -2.162394 -1.6661848
7.9867735 -0.59298742 -1.6640265
7.6473904 -1.9920141 -1.6801575
6.499115 -0.91613871 -1.7005931
6.6882639 -0.43980095 -1.6852911
8.1776018 -1.5566516 -1.657899
7.1495647 -0.65229696 -1.6826086
7.8379226 -1.9099356 -1.6772951
8.2815523 -0.40024102 -1.650679
7.8038244 -2.2294233 -1.6883522
7.9958301 -0.78338265 -1.6697762
6.6389761 -0.27944577 -1.6693907
6.3232899 -0.71327698 -1.699479
7.3231292 -2.0242546 -1.6983794
6.6775317 -0.32326949 -1.680521
6.4035373 -2.1008437 -1.6953614
7.9897928 -0.94782674 -1.6724299
7.8148007 -0.58053869 -1.6647955
7.5330067 -0.6249963 -1.6889062
6.6577711 -0.58500254 -1.679991
8.0931015 -2.1018243 -1.6659687
7.9733481 -0.92054719 -1.6680071
6.4304552 -1.4071327 -1.7060416
6.3361235 -2.335489 -1.6990715
6.6583247 -2.2520571 -1.7095325
6.3822341 -1.7258958 -1.7142144
6.3644633 -2.21053 -1.6948316
7.4681339 -1.287599 -1.6936429
7.0336642 -1.4672524 -1.6840963
7.680829 -1.8085737 -1.6774466
7.4678812 -1.3117137 -1.6945901
8.4483356 -2.2720897 -1.6690351
6.5283432 -0.61871409 -1.6989586
7.8347096 -1.9875089 -1.6808332
6.3392758 -0.65467632 -1.702282
7.5083718 -1.1491941 -1.6979055
8.0883465 -2.1277421 -1.6663933
7.6682801 -1.8693104 -1.6778986
7.0914598 -1.1680362 -1.6845924
6.7249017 -1.9840549 -1.7049152
8.2480631 -0.69791698 -1.647706
6.2534571 -0.49682382 -1.6731308
6.3839025 -1.7048584 -1.7131248
8.2844286 -0.28305432 -1.6502541
7.70541 -1.6363628 -1.6742839
7.504591 -0.92048895 -1.6893798
7.1208372 -0.89867979 -1.6821127
6.3050032 -0.72117722 -1.6944335
6.6581764 -0.39569643 -1.676281
7.687746 -1.708482 -1.6738321
6.595562 -1.1382875 -1.6826411
7.5251522 -0.10293681 -1.680854
6.2643194 -1.0275389 -1.6949942
7.429812 -1.1613326 -1.679433
6.2862625 -0.86952043 -1.6944335
6.4542603 -1.2538042 -1.7038622
7.7310929 -1.5405685 -1.6756395
6.8658366 -1.050585 -1.6874726
7.7907724 -0.82550585 -1.6643438
6.8156419 -1.5083258 -1.696707
7.2454238 -2.3125362 -1.700274
6.3107715 -0.59153628 -1.6921911
7.5373063 -0.42312825 -1.6865379
7.7238526 -1.6149826 -1.6774466
6.7860804 -1.6929948 -1.7002983
8.0164318 -0.25415906 -1.6666802
8.2580051 -0.67266065 -1.6494048
6.6581726 -0.70120418 -1.6831712
6.7605276 -1.7771666 -1.6992722
6.3831892 -2.1498263 -1.6943015
6.8887162 -2.2256219 -1.6979818
7.8185182 -0.18672985 -1.661181
6.2993512 -2.0263705 -1.715849
6.534019 -0.57784528 -1.6995035
6.5457888 -1.3963505 -1.6826411
7.8369122 -2.0799601 -1.686583
6.2471132 -2.2283533 -1.7202078
6.4320669 -1.9988432 -1.6943015
6.812007 -1.2957721 -1.6843944
7.0990143 -0.97529769 -1.6791372
8.46558 -2.1913958 -1.6682208
7.5393906 -0.17415959 -1.6846433
7.0484557 -1.343658 -1.6816169
7.9252744 -1.4753027 -1.6759682
7.8100238 -0.86486483 -1.6697655
6.5262113 -0.55653572 -1.6967791
8.2599792 -0.17825295 -1.6443082
6.8994989 -2.1336699 -1.6935186
8.1093931 -1.9975936 -1.6638452
7.5262389 -0.44626373 -1.6841695
6.858398 -2.323411 -1.6984777
6.4506192 -1.938135 -1.6943015
6.9001498 -2.1576746 -1.6955023
6.9445057 -0.31286219 -1.6890118
8.1795368 -1.5038022 -1.6562001
7.2653804 -2.2686851 -1.701695
6.4683104 -1.8221513 -1.6900613
7.4524121 -1.4178668 -1.6955374
6.6029053 -1.11822 -1.6837012
6.865561 -1.1500382 -1.6915767
7.5619769 -0.5794968 -1.6950637
8.1427746 -1.8302883 -1.662571
7.7695823 -2.3256505 -1.6870253
6.9758773 -0.10578132 -1.6956811
6.7080817 -2.1056721 -1.7100456
6.4852033 -1.7830293 -1.6916513
7.0507393 -1.3211445 -1.681121
8.0014057 -0.89824086 -1.6737567
6.688417 -0.10293801 -1.681581
8.1484079 -1.8585031 -1.6651191
7.9580555 -1.2369765 -1.6741991
6.580749 -1.1996911 -1.681581
6.6910338 -2.1466112 -1.7090197
8.1482058 -1.7509646 -1.6600226
6.6655011 -0.60682732 -1.6826411
6.5777555 -0.11518486 -1.704952
7.273057 -2.296128 -1.7054842
6.908319 -0.94618404 -1.6946549
6.742444 -1.8518982 -1.6997852
8.4478559 -2.2435489 -1.6674064
7.7344451 -1.5033636 -1.6747359
6.5675435 -0.31124896 -1.7038622
7.1615448 -0.96119499 -1.6945105
6.9567795 -1.9023696 -1.6910392
6.7791553 -1.6236447 -1.6941419
7.0337696 -1.5134895 -1.6865759
7.6608653 -1.8419784 -1.6747359
7.8941483 -1.6240329 -1.6755259
6.8056479 -1.4167578 -1.6890118
6.2952251 -0.86071646 -1.696676
7.9661837 -1.0721923 -1.6706607
8.0710478 -2.1774907 -1.6655439
8.4900017 -2.0701268 -1.6669992
6.6357012 -0.63555193 -1.675221
6.9146214 -2.0908446 -1.6940145
7.7527204 -1.2805427 -1.6697655
6.6307626 -0.56153023 -1.6720408
7.0010409 -1.6916177 -1.6885595
6.5706849 -0.50821978 -1.7082211
8.1926718 -1.4530739 -1.6570497
6.6622062 -2.2766736 -1.7126107
7.9453382 -1.3631182 -1.6759682
6.461503 -1.853151 -1.6905913
7.1293917 -0.87703532 -1.6836004
6.9184885 -0.83710611 -1.693629
6.341217 -0.19431213 -1.6938728
7.8070316 -2.2038479 -1.6874676
7.5151687 -0.69493103 -1.6860642
6.4693666 -1.151611 -1.7027726
7.0373521 -1.5606374 -1.6900473
6.2613506 -2.211251 -1.7223873
7.1626582 -0.39328602 -1.681121
7.7257428 -1.4764534 -1.6715732
6.8615055 -1.1272389 -1.6895247
6.9315538 -0.73941576 -1.6941419
6.457427 -1.3070771 -1.7076762
7.8202825 -0.46988112 -1.6643438
7.9158483 -1.5250691 -1.6759682
7.8075504 -2.1511674 -1.6843716
7.1566925 -0.35911208 -1.6791372
6.5150962 -0.85581863 -1.7027726
6.5672574 -1.2612879 -1.681051
7.7414818 -1.567993 -1.6792541
7.4998507 -1.0877383 -1.6936429
6.3434286 -2.3155723 -1.6990715
8.2571058 -0.58124691 -1.647706
6.6578531 -0.72233337 -1.6837012
6.3702874 -1.7980282 -1.7163938
6.9367423 -0.50933093 -1.6900377
6.9439712 -0.28006297 -1.6884987
6.2883253 -2.0665035 -1.7163938
7.0104208 -1.6008801 -1.6855841
8.1784544 -1.477038 -1.6549261
6.7160077 -2.0273733 -1.7059414
7.4009924 -1.8344569 -1.7050105
7.144578 -0.43727911 -1.6771537
7.9892817 -0.77010059 -1.6680071
7.8109965 -0.60492837 -1.6643438
6.8973837 -0.80168647 -1.6869596
7.9992404 -0.16566125 -1.6622574
6.6348948 -2.2907276 -1.7069676
8.0059128 -0.54379994 -1.6675647
8.1929359 -1.3471017 -1.6532271
8.0247164 -2.3144269 -1.6638452
6.5782619 -0.23927139 -1.7060416
6.4220805 -2.0178702 -1.6932415
6.5149293 -1.5836222 -1.6858212
6.7957735 -1.4816453 -1.6900377
6.6613193 -2.2065713 -1.7064545
6.2794137 -0.96935618 -1.696676
6.8693333 -2.3030984 -1.6994696
6.8856978 -1.0093378 -1.6910639
8.2072535 -1.256936 -1.6532271
7.8005676 -0.91345042 -1.6688619
8.2770519 -0.26976389 -1.6485554
6.2493286 -2.2845387 -1.7262012
6.3352799 -0.67437619 -1.7017213
8.0484972 -2.2666388 -1.6659687
7.4262667 -1.5584738 -1.6960111
8.1751471 -1.5694948 -1.657899
6.2600279 -1.087541 -1.696676
6.5919542 -1.1590023 -1.6826411
8.2474451 -0.63264912 -1.6464318
6.5262413 -0.65990639 -1.6995035
7.7826796 -1.01063 -1.6675066
7.9105172 -1.6791852 -1.6817179
7.6647191 -1.8174464 -1.6742839
8.159399 -1.7265893 -1.6612967
7.7988973 -0.7026729 -1.66344
7.7379971 -1.4536389 -1.6733803
7.6385283 -1.9640483 -1.676543
7.4691129 -0.78557736 -1.6770647
7.9889364 -0.73209476 -1.6671225
6.9502811 -1.947631 -1.6925269
6.3190479 -0.54229474 -1.6933124
8.2302589 -0.97073978 -1.6498296
6.9348741 -0.42168292 -1.6879855
6.3338766 -1.8956883 -1.7142144
6.6926632 -0.17664839 -1.6831712
6.3836975 -2.1723828 -1.6964216
7.6207948 -2.1781309 -1.6855795
7.55125 -0.56678504 -1.6922218
7.106751 -1.0447588 -1.6836004
8.1015558 -2.0768802 -1.6663933
7.1387591 -0.54960299 -1.6776495
8.0002718 -0.669801 -1.6684494
7.4874773 -1.2666713 -1.697432
8.1297598 -1.921532 -1.6642697
7.5219855 -0.83875227 -1.6912744
8.2201777 -1.1270524 -1.6519531
6.5750685 -0.35298616 -1.7065866
7.1362472 -0.41423509 -1.6746742
7.9537468 -1.3131696 -1.6759682
6.3488879 -0.29446945 -1.6972365
6.260499 -1.1180644 -1.6983578
7.9052033 -1.7040282 -1.6817179
6.349246 -0.094794139 -1.6955547
6.5742569 -0.29084852 -1.7054968
7.5121641 -0.24447356 -1.6784858
6.2986059 -0.82088965 -1.6961154
8.1638222 -1.6472584 -1.6587486
6.5399776 -0.50596648 -1.6995035
6.9385405 -0.35630548 -1.6879855
8.097393 -2.0216219 -1.662571
7.7968407 -1.037444 -1.6715732
8.1319532 -1.8950833 -1.6634203
6.7241983 -2.0068102 -1.7064545
6.2872882 -2.0880468 -1.7180284
7.1359105 -0.67362028 -1.6796333
8.2395363 -0.95873827 -1.6515284
6.968595 -1.8586216 -1.6910392
6.638628 -2.3387263 -1.7120979
7.9225364 -1.4362307 -1.6737567
6.4048762 -1.5604829 -1.708766
6.7488852 -1.9221554 -1.7064545
7.8139415 -0.44484347 -1.6625365
6.3334455 -0.4834893 -1.6961154
6.5212593 -0.7422834 -1.7005931
6.3021159 -2.0490897 -1.7185732
6.5571914 -0.45546481 -1.7033174
6.5432749 -0.4029583 -1.6984137
6.3130293 -2.0088756 -1.7180284
6.261271 -2.1232338 -1.7142144
7.7721572 -1.2211581 -1.6720247
7.872716 -1.8138844 -1.6799488
7.8132229 -0.16202731 -1.6598256
6.2577395 -1.0668781 -1.6949942
6.745491 -1.8186159 -1.698246
6.5789843 -0.27033755 -1.7065866
6.8003435 -1.6512218 -1.7013242
7.1040487 -0.90784365 -1.6781455
6.5183916 -0.67982978 -1.6978688
