# .PCD v0.7 - Point Cloud Data file format
VERSION 0.7
FIELDS x y z
SIZE 4 4 4
TYPE F F F
COUNT 1 1 1
WIDTH 1561
HEIGHT 1
VIEWPOINT 0 0 0 1 0 0 0
POINTS 1561
DATA ascii
3.57688 4.8383832 -1.8402618
2.8343115 5.1643414 -1.8568704
2.52086 5.8863387 -1.8462605
3.3061488 5.2141585 -1.8415016
3.7316515 5.7065907 -1.8323413
3.6661201 4.4946327 -1.8257146
1.882798 4.1288776 -1.8927757
2.627476 5.0046964 -1.8739206
2.1744385 4.8829145 -1.886647
2.1250803 5.0883083 -1.8837775
3.789716 6.0563593 -1.8066652
1.7885611 4.1982646 -1.9044029
2.6185563 3.8924787 -1.8627435
1.7728 5.4346066 -1.8970088
2.4539287 4.7107544 -1.8737228
3.490268 4.6703548 -1.8360997
2.4498866 4.4862943 -1.8871233
3.0410838 5.2489977 -1.8566896
1.6706938 5.6766653 -1.8996114
3.374552 5.0113764 -1.8484757
3.5684118 4.5536022 -1.85349
1.6856667 4.7324505 -1.9067549
2.76302 4.3450809 -1.8650732
3.355083 4.2860012 -1.8572763
2.096844 5.5618224 -1.8750442
2.2441254 6.0360012 -1.8576269
3.1964459 5.7498121 -1.8416681
2.238008 4.6868978 -1.8827212
3.4077311 4.4245872 -1.8494741
3.5317359 4.3408113 -1.8535484
3.0802176 5.3463411 -1.8402669
3.7100847 4.1314282 -1.8379302
3.7009518 5.4642406 -1.8480721
1.9453183 4.5976787 -1.8937491
2.0285573 4.3274736 -1.901002
2.7968986 5.4194045 -1.8674308
2.2798965 3.8920033 -1.8803178
2.6898496 4.7706938 -1.8698292
3.6918235 5.1735306 -1.8313048
2.9537525 5.0750923 -1.8503792
3.7200375 3.8778234 -1.8314722
3.2929592 3.8735359 -1.8393365
3.0877986 4.3103848 -1.8701327
3.4006324 4.4442663 -1.8535484
2.8202448 3.8588288 -1.8524543
1.9488188 5.6194053 -1.8763424
1.8760115 5.973845 -1.869902
3.8011682 4.0245266 -1.8318183
3.8245754 4.2952714 -1.8416303
2.1969104 4.7145104 -1.8856626
2.0540807 5.5353632 -1.8949991
3.5842364 4.5674143 -1.8276616
2.2088292 3.9390299 -1.8828095
2.6006958 5.2626667 -1.8831395
2.6784639 4.42382 -1.8738972
1.8761389 4.8007193 -1.9043086
2.1432648 5.0867786 -1.88587
2.211446 4.2079415 -1.8898432
1.9515175 5.9516091 -1.8705192
3.3874626 5.9240251 -1.8340231
2.3954055 4.3926954 -1.8983394
2.8797386 4.6364808 -1.8628556
2.8907797 5.9243064 -1.8457434
2.2975523 5.4368062 -1.8607646
3.3619597 4.480649 -1.8555855
3.7983859 6.0281453 -1.8013651
3.2303653 3.889426 -1.8647075
1.8306625 5.4094315 -1.8949713
2.8189144 5.4950233 -1.842119
3.8591771 5.9779348 -1.798715
3.8442273 5.6057816 -1.8261747
1.705548 5.3088574 -1.9067918
3.8924088 4.7235951 -1.8242146
2.1482856 3.9909799 -1.8902842
2.3962736 4.5849166 -1.8746326
3.1748669 6.0493026 -1.8362654
2.4435439 4.0582852 -1.8826698
2.3403194 5.1886106 -1.8881809
2.0990353 4.5377121 -1.8968095
2.4006128 5.14854 -1.8841065
3.868552 4.583703 -1.8339436
2.8887773 5.6569815 -1.8301082
2.374177 5.9798818 -1.8558325
2.6371322 5.2529564 -1.885775
2.8701148 4.6534591 -1.8663427
2.6547167 4.0032744 -1.8626047
2.6587512 4.4226794 -1.8694851
3.2504969 5.71943 -1.8416681
3.1911039 3.9888787 -1.8488958
2.4042459 4.0795603 -1.8818728
3.79245 4.3760529 -1.8224691
2.0441384 4.1397667 -1.8821317
2.6902964 6.0598931 -1.8573873
2.1693211 4.0507183 -1.8723551
2.7044735 5.5480094 -1.8408842
2.573138 5.0349627 -1.8745996
3.1527379 4.8799324 -1.8620554
1.7275497 4.257134 -1.9185218
2.2590902 4.5894694 -1.8886178
2.9446812 5.869885 -1.8381749
3.3081732 5.0486355 -1.8465801
1.7371904 4.6901412 -1.8975743
3.8300653 3.9918227 -1.8304603
1.8403877 4.4028363 -1.8978139
2.5489912 5.0661898 -1.880711
2.5695882 4.661469 -1.878031
3.6814172 4.4845591 -1.8263637
2.2996421 3.9443879 -1.8593191
2.9141533 5.1175365 -1.8562211
2.2931728 4.4177933 -1.8876289
3.6686814 5.7472754 -1.8323413
2.3071139 6.030601 -1.8630111
1.848336 5.6731524 -1.8828332
1.6681856 5.1430058 -1.9103413
3.103756 4.059557 -1.8496313
2.7914302 4.8978181 -1.8684877
3.1242197 4.6631346 -1.85966
2.4883771 5.3271189 -1.8864337
2.2733941 5.4756389 -1.8698516
3.3184514 3.8541739 -1.8400719
3.2213733 4.8778725 -1.8412923
3.5749292 4.0320539 -1.8370514
3.538379 4.6125722 -1.8302581
2.3087566 5.8121133 -1.8674324
3.626523 5.2195129 -1.8313048
1.7374198 4.2432876 -1.914369
3.7235467 4.7191892 -1.8383663
2.3477552 4.4036932 -1.892984
2.8573933 4.2970176 -1.8694851
2.3261402 4.2510514 -1.8805634
1.9811188 5.9157472 -1.862493
1.8177851 5.4276614 -1.8997246
3.7359684 4.1080375 -1.8379302
2.405962 4.9533391 -1.880988
1.923521 4.8445125 -1.8900745
3.565053 4.8541694 -1.8421574
3.1763625 4.6300564 -1.8603393
2.1706171 4.4874926 -1.890689
1.8540002 5.6095266 -1.8963169
3.0516069 4.7132149 -1.8603393
2.0573733 4.9293365 -1.885211
2.7094927 4.7703466 -1.8733164
2.7699654 4.7202811 -1.8684345
2.6046982 4.3852768 -1.8826401
1.8789282 4.154613 -1.9027418
2.3109057 5.790782 -1.8612583
2.7141349 4.1348844 -1.8746234
2.3066943 5.0065298 -1.8830801
2.0244505 5.1634188 -1.8956336
2.6972146 4.1657672 -1.8815087
3.4367993 5.9022059 -1.8357049
2.4663208 4.9193711 -1.8795933
2.2921119 3.8848221 -1.8803178
3.1520939 4.922925 -1.8412923
3.861654 4.2823305 -1.8469012
3.9003177 4.2648239 -1.8185747
2.2007267 4.3235092 -1.8829058
2.5976887 5.5134673 -1.8661669
2.7728524 4.2765126 -1.881146
3.443517 4.4135079 -1.8542274
3.3358128 4.2891483 -1.8537892
3.6028244 4.4950061 -1.8449246
2.3182912 5.4382796 -1.8640102
3.1706185 4.0146656 -1.8518372
1.708923 4.9498949 -1.8996339
1.7859292 4.2931681 -1.8967968
1.7633543 4.4322758 -1.8970169
3.7451987 5.1113834 -1.8253224
1.994382 5.5611634 -1.8963169
3.4872875 4.3838134 -1.8555855
2.5235386 4.3160782 -1.8968095
3.1886439 4.4204755 -1.8600658
1.7071311 5.465446 -1.9004041
1.8667582 5.0185776 -1.8902371
2.2308612 4.1810551 -1.8834671
3.7745273 4.0469503 -1.8311393
3.1965666 6.0443807 -1.8379472
2.3745749 4.7762785 -1.882339
2.8627961 4.0356512 -1.8753885
2.9858539 3.9153044 -1.8654429
2.4112551 5.3583269 -1.885116
2.4361825 4.1676455 -1.8727554
2.6607704 5.8055444 -1.8408763
2.6723499 4.0025992 -1.8665088
3.8110595 4.3072681 -1.8416303
3.7623954 5.0845013 -1.821733
2.6814177 5.8023448 -1.8426712
1.7170033 5.1013174 -1.9010072
1.7068543 4.4523749 -1.8962198
2.5506077 4.3001366 -1.8968095
3.1591465 4.0260634 -1.8525727
3.7648771 4.3997974 -1.8224691
2.5687978 4.419282 -1.8871233
2.1672382 4.6396952 -1.8908594
2.218513 5.8512235 -1.8686671
2.108319 5.5392699 -1.8692027
3.6662767 4.7686071 -1.83963
2.0279734 5.932025 -1.8723714
3.6905527 4.4306364 -1.8469012
2.6126709 4.0637145 -1.874317
1.6706642 4.3393221 -1.8967968
2.2906144 5.4048467 -1.8831395
2.4772241 4.1476722 -1.874317
3.7540987 4.0761437 -1.8338556
2.0413589 5.1587739 -1.8963307
3.4296 5.636272 -1.8474898
1.8105081 4.8099995 -1.8983312
2.0782135 4.1268573 -1.8837613
2.9388485 5.8813634 -1.8405036
3.5106828 5.2797961 -1.8265188
2.8096833 4.0817833 -1.8784486
2.7970102 3.8779736 -1.8532351
2.6512842 5.8329506 -1.8474569
3.073168 4.3185372 -1.8694148
2.0492766 4.3359671 -1.9081756
2.3281806 4.6302776 -1.878309
3.0409329 4.1230154 -1.8547785
2.4268129 4.7310758 -1.8758768
3.2053981 4.8273816 -1.8567845
3.3710299 4.0003624 -1.8428484
1.9765053 4.2007594 -1.8935381
1.7623397 4.5614429 -1.8993031
2.3398013 5.4414163 -1.8679044
3.4907074 4.6015944 -1.8501956
2.9594169 4.5860333 -1.8628556
1.8865089 4.7826962 -1.8990784
3.6630952 6.0419149 -1.8427993
2.6351347 4.8139582 -1.8740138
3.1230071 6.0891871 -1.8396291
2.4916403 5.3485522 -1.8601156
3.0479677 4.9991455 -1.8445377
2.5673099 3.935231 -1.8659316
2.9684577 5.6155796 -1.8301082
1.6801534 4.4664392 -1.8978139
2.7472987 6.009027 -1.8504009
3.3589008 4.7541313 -1.8328544
2.0806687 5.9036632 -1.8692844
1.8220655 4.2660432 -1.8919084
2.3948791 4.9503789 -1.8781983
3.468487 4.9305944 -1.8440529
2.9744141 4.9906268 -1.8620554
2.7876642 4.7163844 -1.8705271
1.8140994 4.4176989 -1.899408
2.33726 5.9964557 -1.8564305
1.9627564 5.6025286 -1.8724481
2.3332975 4.1352992 -1.8874522
2.2184823 3.9273341 -1.8803178
1.7624156 4.7122998 -1.909815
2.8856122 5.1423616 -1.8588172
3.878247 4.2468729 -1.8416303
3.0969443 3.9894345 -1.8624661
2.1398141 4.7468195 -1.8878684
2.7343836 4.5624008 -1.8765948
2.0707891 5.5271177 -1.8943404
2.8135245 5.1843061 -1.8594662
2.9991045 4.7623653 -1.8650926
2.222672 4.0279503 -1.8747991
2.5696764 5.6263576 -1.845206
2.6218047 4.8254986 -1.8754088
2.9340055 5.635808 -1.8307064
2.4408591 5.6958466 -1.8489105
2.6385806 5.2902975 -1.8640102
3.4327002 4.978642 -1.8503712
2.3736837 5.3647532 -1.8818216
2.2583866 5.6956348 -1.8769082
2.4838572 4.7140398 -1.8801849
3.0037467 4.9686151 -1.8607374
1.6911581 5.9482245 -1.8958634
2.044699 4.9426889 -1.888083
2.099534 4.3016529 -1.9041904
2.3268652 5.6597981 -1.8743809
2.2933168 5.0188556 -1.8851725
1.7415092 4.549726 -1.8914949
2.0028448 4.9738851 -1.8931091
3.1868317 4.4471741 -1.8677374
1.8697971 5.5983081 -1.8943404
2.410435 5.1273251 -1.8786739
2.4886363 4.3341656 -1.8960444
2.3175194 3.9466245 -1.8642076
2.6443281 4.6237826 -1.8794668
1.8672307 4.5135417 -1.8969604
2.6279628 4.6288114 -1.878031
1.9055531 5.5882339 -1.8949991
3.1843791 4.0061355 -1.8525727
2.1605122 6.0725093 -1.8594217
2.8633134 4.4693136 -1.8722868
2.5602796 4.2857771 -1.8937491
1.9619596 4.5966311 -1.8960444
1.9851924 5.1826539 -1.8970281
3.2304385 4.8582492 -1.8373978
3.7105966 5.4414921 -1.8439968
2.2695065 3.9022808 -1.8819788
1.6915343 4.9499679 -1.8974278
3.1685636 4.9145913 -1.8419412
3.1103466 5.7859807 -1.8387572
1.9285247 5.363327 -1.8908968
1.8670396 5.4049463 -1.8976878
2.717037 5.2397819 -1.8607646
3.5488737 4.8800955 -1.8459485
3.8536661 4.7674918 -1.8273015
3.4433877 3.9332907 -1.8414123
3.0203381 5.5856771 -1.82951
3.341943 5.0309019 -1.8478438
3.0210695 3.8975527 -1.868503
1.7240589 6.0511117 -1.8797801
2.7452228 4.1254125 -1.8784486
2.0904391 5.3104033 -1.8936132
2.9359169 5.0810623 -1.8490812
2.6321535 5.8395147 -1.8468587
3.5203667 4.9053707 -1.847212
2.1808648 4.3521056 -1.8899332
3.7326303 4.4321356 -1.8237672
2.0404735 5.5706635 -1.8711497
2.3657398 4.5333233 -1.8878706
2.1165295 5.7559242 -1.8788038
3.4515057 4.1747465 -1.8475127
1.83165 5.6825366 -1.8841313
2.8033478 5.5072513 -1.8433537
3.0077767 5.4157333 -1.8482929
2.8498232 4.8749719 -1.8718832
2.8340008 5.9495564 -1.845161
3.4049559 4.6840916 -1.8554667
3.2439401 6.0190887 -1.8379472
2.3900826 5.9653192 -1.8534393
3.7141604 5.9767003 -1.8346264
3.4475596 5.0942168 -1.8340927
2.2070174 5.059444 -1.88587
3.259351 4.7934027 -1.8574432
2.9077029 5.9117537 -1.8445789
2.4582038 5.9189782 -1.8480551
1.8448544 4.8909183 -1.8959572
2.1675656 5.4695792 -1.8877515
3.5520079 4.0572457 -1.8384464
3.4385293 4.9538426 -1.8446846
2.1742287 4.2334785 -1.8922344
1.8855026 4.6584339 -1.9075197
3.2674437 4.1211996 -1.8536186
2.764466 5.5162334 -1.8402669
2.7235518 5.5429072 -1.842119
2.5312753 4.4344735 -1.8848816
3.8823466 4.7417078 -1.8266841
1.6834936 6.0526505 -1.876693
2.5633347 4.0993576 -1.8758788
1.7959064 5.6939344 -1.8841313
1.9110512 4.8574405 -1.8930159
3.3407011 5.4024243 -1.8301082
2.7798374 4.5085545 -1.8679788
3.0966439 4.4831266 -1.8593684
3.1136956 4.6792102 -1.8623763
2.5060627 5.1001401 -1.8847855
2.3211694 4.6525111 -1.8849272
1.7397459 5.4492273 -1.8983668
2.6488256 4.6147518 -1.8773129
3.7395892 4.4262657 -1.8237672
2.7700462 4.1065569 -1.8776835
2.7042422 4.4037447 -1.8724265
3.4089494 5.9183345 -1.8357049
2.1525755 4.240416 -1.8906404
2.1951923 5.235343 -1.8827485
2.4501536 4.7400532 -1.8830571
3.389538 4.9829021 -1.8434209
2.4538927 4.1679292 -1.8766593
1.7662679 4.8540673 -1.9087918
2.0168965 4.5849071 -1.9006344
3.8177359 4.7841501 -1.8242146
2.7496402 5.5300121 -1.842119
3.8869162 5.3146067 -1.8434145
1.8225037 5.0447416 -1.893827
3.7198956 4.4452953 -1.8244163
2.0636895 4.3311572 -1.9089726
3.6205039 4.488059 -1.8469012
2.6196477 3.907212 -1.868323
1.744646 4.4258747 -1.8914374
2.0146871 5.5357575 -1.8903869
3.5684431 4.5917492 -1.8309072
2.5308232 4.1043744 -1.8704129
1.9030049 4.1216068 -1.8936061
1.9620965 4.7541938 -1.8998252
1.880493 4.8693523 -1.8930159
1.9752761 5.6101604 -1.8763424
3.2487998 3.9203141 -1.8422778
2.4170513 4.0719862 -1.8818728
3.4835966 5.0442319 -1.8273015
2.7277274 5.7828288 -1.8432693
2.694639 3.8469219 -1.8651348
3.0004318 4.5548162 -1.8614608
1.8427659 5.0512872 -1.8988532
3.0762973 4.0147295 -1.8654547
2.7312207 4.1324816 -1.8776835
1.7567985 5.6942449 -1.8802367
3.6625593 5.201293 -1.8330994
2.6921978 4.5895844 -1.8773129
3.3225038 4.7980576 -1.8380468
1.8153927 4.9058962 -1.8974278
2.3033655 3.8760436 -1.8794874
3.3086936 5.426558 -1.8313048
3.8507152 4.2972417 -1.848219
3.4922721 5.8695526 -1.8357049
1.8624953 4.6437969 -1.8983394
3.0572245 5.5699277 -1.8307064
3.6159143 4.9808331 -1.8353276
2.6172149 5.2544708 -1.8831395
2.1973312 4.8931255 -1.893827
2.966053 5.4408636 -1.8489105
3.4993985 4.9087038 -1.8440529
2.1938095 3.9557385 -1.8861314
3.2690246 4.7753725 -1.8541487
3.5264468 4.0794826 -1.8384464
3.4471817 4.6342902 -1.8501956
2.7067342 5.2067938 -1.8824805
3.7212167 5.1123548 -1.8211346
3.0192363 4.057816 -1.8654547
2.2489555 4.3173132 -1.8899332
3.2598081 4.5647569 -1.858302
3.328738 4.0525451 -1.8478744
2.9522605 4.2346673 -1.8702204
2.6808386 3.9880476 -1.8633858
2.7907457 5.1300302 -1.8725973
2.4434469 5.3769736 -1.8620628
3.7200174 5.7279215 -1.8357049
2.2174273 5.2423077 -1.8881809
2.6245635 4.4603252 -1.8753679
3.7409899 4.6956735 -1.8358388
3.1840324 4.2304521 -1.8672607
3.7438023 4.0907044 -1.8352138
2.908814 4.6182952 -1.8628556
2.5542076 4.8637342 -1.8761061
2.355459 4.2411962 -1.8829058
2.5851893 4.8303366 -1.8705271
1.7147262 4.7200327 -1.9059898
2.3589342 4.6188631 -1.8797798
3.9006612 3.9149048 -1.828423
1.8317401 4.1895361 -1.9085554
3.4781356 4.4006734 -1.858302
2.2390807 5.6991754 -1.8756446
3.1130681 4.0453815 -1.8474252
3.1312313 4.8803039 -1.8581022
3.4098556 4.2449584 -1.8579736
2.7623153 4.1228876 -1.8815087
2.7079697 3.9473662 -1.8555773
1.8765097 5.2409105 -1.9033049
2.8113258 3.8721597 -1.8547968
1.9749832 5.5620708 -1.8943404
2.7754102 5.743144 -1.8384833
2.6431324 4.0131373 -1.8633858
3.2844672 5.6955724 -1.8405036
3.6777039 5.7415061 -1.8323413
2.9475746 4.1215754 -1.8691907
2.763499 4.7262411 -1.8691319
1.9185179 4.9890208 -1.886647
3.1557384 5.783155 -1.8445789
3.3623528 5.4181957 -1.8378851
2.0716629 4.3131094 -1.9033931
2.2729018 4.8358045 -1.8859292
2.17272 5.7410369 -1.8806993
1.7791446 5.0740447 -1.8988532
2.0303195 4.8027525 -1.89081
2.2053177 4.6941495 -1.8797798
2.4795415 5.3666773 -1.8640102
2.0005224 4.1833014 -1.8910936
3.2060564 6.0393515 -1.8379472
3.060451 5.2443218 -1.858585
3.1500478 5.3121324 -1.842119
3.5083392 3.8704309 -1.8399764
2.5051019 5.3192739 -1.8864337
1.954156 4.4826188 -1.8993031
1.9330366 4.6088686 -1.8960444
2.0725019 4.1481128 -1.8910936
2.2861214 4.4380817 -1.8937491
2.4246075 5.9431262 -1.8510466
1.7974399 5.6457429 -1.9022468
1.7866036 5.928185 -1.8983909
2.982178 4.2068143 -1.8680146
3.235615 5.1111693 -1.8510031
3.2228539 5.2638197 -1.8408842
3.5900893 4.0235882 -1.8384464
1.7438824 5.921114 -1.8920723
1.8940941 4.3760033 -1.8962198
2.8514309 5.1570711 -1.8575193
1.9512109 4.3568659 -1.8986109
2.6765487 4.1768818 -1.8807439
2.7066061 4.5811019 -1.8773129
2.7533779 4.5291319 -1.8694148
2.7442269 5.7707911 -1.842073
3.6165507 4.2777972 -1.8555855
3.4246645 4.7046394 -1.8322052
3.2645721 5.0859594 -1.8491075
2.0130353 4.8039737 -1.8886039
2.6540799 3.8661196 -1.8619463
3.6918912 4.4685807 -1.8244163
2.5728922 5.303637 -1.8581682
2.4320729 4.5828791 -1.8805151
2.8105903 5.7238836 -1.8378851
1.7308384 4.7180853 -1.9075197
1.6825261 5.2945681 -1.8991207
3.2912331 4.8172717 -1.8373978
2.1519799 5.7407374 -1.878172
1.723224 4.9409943 -1.8981633
2.7048132 3.9695981 -1.8626047
2.8331423 4.0610304 -1.8769184
2.8354464 4.1972642 -1.8684435
3.5435865 4.5514278 -1.84756
3.1023135 4.0840402 -1.8569846
1.8093805 4.5132456 -1.8875908
1.9811566 4.086638 -1.8944367
2.0514812 5.5464535 -1.8646592
2.2701669 4.1598449 -1.8834671
2.1534746 4.5059862 -1.8945142
3.3862028 5.66468 -1.8480721
3.6879601 5.9974217 -1.8357162
2.3326707 3.9440565 -1.8666521
2.418442 4.3694973 -1.8945142
1.9422965 4.7482901 -1.8945951
2.7063434 4.3364139 -1.8871233
1.7265249 5.4672413 -1.9031202
2.180701 4.2136331 -1.8858582
1.8185033 4.515533 -1.8899332
3.0796559 4.0941725 -1.8547785
3.5331614 5.0142946 -1.8285363
2.9070218 4.4142118 -1.8636706
2.6082337 4.4806581 -1.8790445
2.0390668 4.1626158 -1.8902789
3.4562619 4.9461184 -1.8459485
1.9001713 5.868835 -1.8908087
3.4658084 4.1653185 -1.8482101
3.3230295 4.0716939 -1.8521826
3.5576484 5.0156202 -1.8334755
2.0635703 4.1464438 -1.8886496
2.4134507 3.8693411 -1.8568752
1.952511 4.8288894 -1.8886039
3.1375029 5.1875057 -1.855426
3.3573489 4.7113757 -1.85349
1.8082917 4.2076325 -1.9118778
3.4173923 3.9534307 -1.8406944
2.2764213 5.2210655 -1.8895389
2.9855864 4.1838489 -1.8613966
2.1651871 4.4942179 -1.8922192
2.5829351 4.8442903 -1.8747112
3.2794967 5.07409 -1.8484757
2.1180139 4.9218812 -1.8916731
3.0756376 5.5619631 -1.8313048
3.3165057 5.9728246 -1.8362654
2.7578626 4.9103265 -1.8664507
1.6898055 4.8812118 -1.9087918
3.7962568 4.3178062 -1.8409714
2.100028 5.4999075 -1.8890694
3.3671415 5.3882351 -1.8307064
2.3524127 5.4236059 -1.8640102
2.6262851 6.0691481 -1.8521473
2.4339726 4.5692301 -1.8761032
3.1135406 4.96527 -1.8464848
2.8379109 5.6890683 -1.831903
2.9759264 5.3079762 -1.8630079
2.1583939 4.2353988 -1.8898432
1.6845112 5.7475939 -1.8906223
2.7216494 4.7569437 -1.8712245
3.7230446 4.1197529 -1.8379302
1.932309 4.2092156 -1.8886496
2.1105359 5.0984168 -1.8851725
1.969025 5.9418321 -1.8692844
2.4587653 5.3658247 -1.8607646
3.0234957 4.9940925 -1.8386961
3.7713122 4.3793149 -1.8185747
1.8027158 4.6851525 -1.9052247
2.7606778 5.758707 -1.8408763
2.4657903 3.8448813 -1.860134
3.6770759 6.0221453 -1.840075
2.1545606 5.4868898 -1.8917049
1.9690953 4.8261676 -1.8900745
3.0283897 5.26509 -1.8592168
2.8086131 5.4005136 -1.8636397
2.3863223 4.2027469 -1.8750979
2.799998 4.0951509 -1.8807439
2.246263 3.9959953 -1.8674668
2.0550184 5.318161 -1.8915762
2.8832681 4.4386702 -1.8665428
3.8944385 5.0276093 -1.8325012
2.2854183 4.5701942 -1.8863761
2.2801466 5.7927413 -1.8581712
1.7015464 4.297853 -1.884576
2.3013055 4.2854576 -1.8883716
2.9248495 5.3341274 -1.8623761
3.8464887 3.9838471 -1.8324974
2.0905666 5.902184 -1.869902
3.2032559 4.6069088 -1.858981
3.4855804 5.6085849 -1.8492366
2.847959 4.0416141 -1.8738585
3.2985458 5.068521 -1.8503712
3.0597253 4.9830799 -1.8419412
3.2745321 5.4472394 -1.8313048
3.5820088 5.8107138 -1.8345836
3.4582226 5.0754795 -1.8310059
2.6417849 5.5970693 -1.8464408
2.7057624 4.9628086 -1.8739206
2.579118 4.0959749 -1.8782209
1.9836657 4.3199925 -1.8898432
2.6693654 3.862272 -1.8643376
3.349349 4.7724261 -1.8360997
1.7167875 4.8599844 -1.9043086
2.6165748 4.373878 -1.881146
3.5215914 4.620645 -1.8289596
2.7818868 4.0963116 -1.8769184
1.8729289 5.8477054 -1.8813313
3.430433 5.3390923 -1.8283134
2.6923299 3.9780757 -1.8626047
2.7626216 3.9205797 -1.8594817
3.8508289 5.98561 -1.7992449
3.0477989 3.881387 -1.8700331
3.3479564 5.1715574 -1.8371798
3.5845494 5.0034523 -1.8353276
2.4415834 3.8602986 -1.860134
3.5315933 4.5655165 -1.848878
2.0196655 4.1558237 -1.8837613
2.4902644 4.4597583 -1.8856292
2.8729625 4.2911005 -1.8709556
2.5179136 4.1123071 -1.8704129
3.82146 6.0226812 -1.803485
3.2177162 4.5968204 -1.858981
3.1540194 4.2598462 -1.8694148
2.1188612 3.9963851 -1.8861314
3.516907 4.3504157 -1.8528694
2.270432 3.9802098 -1.8666521
2.343564 4.6245956 -1.8790445
2.6864989 5.4770846 -1.8680626
2.7417884 5.5360327 -1.8427365
2.8527257 5.0720067 -1.8653499
3.8859246 5.5722771 -1.8250535
1.9518446 4.9820924 -1.8888011
2.0048201 5.8158541 -1.8851222
2.9723852 3.948693 -1.8730932
2.6623831 4.6047873 -1.8765948
3.624907 5.4806037 -1.8393393
2.5269711 4.5355034 -1.881986
3.3419244 4.4979572 -1.8562649
2.9708147 5.8760037 -1.8434145
2.9945974 4.7718635 -1.8671297
2.0418477 4.5637302 -1.8968095
2.9667912 4.2131314 -1.866544
1.842914 5.250833 -1.9026078
3.2777901 3.8471072 -1.8639604
2.0432315 5.8085055 -1.8870176
1.9047118 4.4838529 -1.8914949
2.7479105 4.2969871 -1.8826401
2.5108888 4.1596737 -1.8860291
2.1036777 5.295053 -1.8902179
2.0267873 5.5877328 -1.8750442
2.7456276 4.3780618 -1.8724265
2.3539684 5.9837637 -1.8546357
3.7368126 4.8524237 -1.8254492
3.3846624 4.6871343 -1.8521721
3.4651384 4.6279569 -1.8521721
2.4083595 4.5108256 -1.8878706
2.6814849 3.8538678 -1.8643376
3.2259729 5.7179246 -1.8375926
2.5277166 5.6515856 -1.8470582
2.6569242 5.58358 -1.8445886
3.2944763 4.0756478 -1.8464384
2.6471269 3.8819892 -1.8659316
3.4916902 4.3610449 -1.8501531
3.5566778 5.8105025 -1.8306595
2.4527256 3.8510633 -1.8593191
2.0752046 4.0356016 -1.8927757
2.5735676 3.9179797 -1.8611494
3.4906991 4.1420307 -1.8475127
2.7791393 5.1470599 -1.8758918
3.7680213 4.6691337 -1.8345753
2.064657 4.4104552 -1.890714
2.0712562 4.5524883 -1.8975743
3.1086421 5.5392075 -1.8301082
3.3117108 4.7412639 -1.8528312
2.8224916 4.0729375 -1.8784486
2.8162789 5.1698899 -1.8555721
1.7907729 5.0560923 -1.893827
3.3102803 4.5142999 -1.8542274
2.0744171 5.3187022 -1.8942922
2.360465 5.1898112 -1.8915762
3.6292095 4.9334192 -1.8254492
2.3478377 4.4203949 -1.8991042
2.5087702 4.4600196 -1.8893647
3.598182 6.0629015 -1.8384404
3.1399393 3.9414628 -1.8579828
2.560678 5.0497484 -1.8773156
3.6329989 5.1940598 -1.8259206
3.0959046 4.2930651 -1.8665428
3.1280537 4.0385118 -1.8488958
2.2502751 4.6748285 -1.8805151
1.9408336 4.8436141 -1.8922806
3.2231889 6.0258722 -1.8368262
3.5971887 5.7945518 -1.832902
2.7354245 5.4464455 -1.8661669
3.1527894 5.1760077 -1.8547941
2.2738674 4.448523 -1.8952793
1.7364423 5.7242117 -1.8880259
2.3859911 5.1594777 -1.8854645
2.0097344 4.1687484 -1.8870202
3.2208071 4.4063873 -1.8628556
3.4423223 5.6172934 -1.8445789
2.5513365 5.301446 -1.8542737
1.9438254 5.8165197 -1.8788038
2.0913458 5.7711778 -1.8806993
3.5088959 4.3544641 -1.8521905
2.6053343 5.2856665 -1.8575193
3.4273582 3.9398468 -1.8392582
2.509186 5.6577559 -1.8464408
1.9504282 4.1215296 -1.9027418
2.2913175 5.2104354 -1.8881809
1.8350679 6.0084319 -1.876693
2.9162364 5.0357585 -1.8653499
3.694303 3.8997669 -1.8307749
3.8352904 5.6304922 -1.8306595
3.2729185 4.8228769 -1.8354506
2.7314718 4.9358087 -1.8698462
2.4476762 4.3574286 -1.8960444
1.9657791 5.8211551 -1.8825947
2.9508455 3.9717236 -1.8753885
3.6383843 4.2220635 -1.8453996
3.1161001 4.4810462 -1.8628556
1.6577504 4.7481737 -1.9090499
2.2718663 4.5790176 -1.8871233
1.9389064 5.2081485 -1.8998178
2.6297338 3.8827205 -1.8619463
2.890198 5.063797 -1.8693029
3.2326636 3.9384439 -1.8437485
2.742063 5.1946826 -1.884457
3.2807674 5.9969063 -1.8373867
3.3983295 4.7306871 -1.8341526
3.7373059 4.3739004 -1.8422891
3.3408902 5.1964908 -1.8427365
3.2780595 4.107986 -1.8521826
3.8662097 3.9541955 -1.8297813
2.4760296 4.5444603 -1.8753679
1.7257941 5.6660805 -1.9015878
1.8343803 5.8857551 -1.8895451
3.311193 3.870208 -1.8430132
2.4411836 5.6093688 -1.8737491
3.0810397 5.8189659 -1.8434145
3.2393739 5.2536688 -1.8408842
2.1671705 5.8825984 -1.8723714
2.5028296 5.5592532 -1.866799
3.568475 4.0502672 -1.8405385
1.8950964 4.861691 -1.8922806
3.6904914 5.7218766 -1.8295383
3.6297979 4.4708214 -1.8442657
3.7322025 3.866116 -1.8314722
1.8643596 4.1571836 -1.901081
1.9087925 4.2279496 -1.8919084
3.0042844 4.0642858 -1.8639604
3.3245492 5.2069607 -1.8427365
2.5995889 4.2598834 -1.892984
3.7944551 4.7856536 -1.8198926
3.0577548 5.3854856 -1.8476756
2.6137936 5.8477559 -1.8468587
1.7770903 4.8362832 -1.9035614
3.7362857 5.442462 -1.8486542
2.9173408 4.8150859 -1.8657717
3.3853512 5.1403241 -1.8353276
2.5798802 4.406373 -1.8848816
3.3727293 4.7420101 -1.8322052
2.5274069 5.5668836 -1.8724855
2.5961907 5.8576798 -1.8474569
2.1183295 4.3808393 -1.8891526
2.9060466 4.8306932 -1.8684877
2.4899807 4.6896844 -1.8730047
3.087981 4.0785699 -1.8518372
1.8797989 5.0296521 -1.8959812
2.6536207 5.2446461 -1.885775
1.893052 4.6354175 -1.8998696
2.5558193 4.4289422 -1.8878706
3.0386875 4.9384565 -1.8581022
2.8966062 5.0383639 -1.8627142
2.6674719 4.3343129 -1.8781571
3.7569525 3.8551676 -1.8349591
2.595084 4.4904351 -1.8797798
2.5730116 4.8622966 -1.8788956
3.0115948 4.5406961 -1.8593684
2.7801993 5.9812179 -1.8469076
2.6039402 4.8287735 -1.8733164
2.6849537 4.3322387 -1.881146
2.5047982 4.8809376 -1.8733164
3.5824089 4.2917385 -1.8515115
2.171556 3.9742193 -1.8886231
1.7485458 4.9143271 -1.8915453
2.3458271 5.7726169 -1.8600235
3.2465255 5.092998 -1.8478438
1.8299432 4.5029602 -1.8868099
3.0699699 5.3675776 -1.8445886
3.2332175 4.588232 -1.85966
2.6224468 4.0508332 -1.8719743
3.4936786 3.8786464 -1.8385403
2.4392815 4.5005107 -1.8901119
3.6935005 5.1418176 -1.8235276
2.0069196 5.9311481 -1.869902
1.7559816 4.2317004 -1.9127082
2.8688469 5.9264555 -1.8434145
1.8605353 5.0507374 -1.9010072
3.5641866 4.8689232 -1.8459485
3.690856 4.1360173 -1.8345348
3.1942384 4.8866472 -1.8386961
2.2279017 4.8382115 -1.8794668
2.4637375 4.0202646 -1.8731052
3.749563 5.694838 -1.8323413
2.7946124 4.2512288 -1.8774099
2.4883618 4.136703 -1.8727554
2.9738092 4.576714 -1.8628556
1.9692771 4.7291269 -1.8916066
1.9839308 4.3561773 -1.9041904
1.8892123 5.5977659 -1.8963169
1.8198986 5.6246524 -1.8976346
2.3128512 5.9895492 -1.8516448
3.6644504 5.16958 -1.8253224
2.9616284 5.0048084 -1.8640319
1.7201611 4.4452839 -1.8954228
2.3008523 4.8163633 -1.883775
1.7148045 4.5657592 -1.8938372
2.2997642 4.5629926 -1.8863761
2.4664662 4.7168446 -1.878031
3.0160503 4.7561073 -1.8664507
3.2181313 3.899555 -1.8647075
1.6750101 5.3283973 -1.9102789
2.23313 5.054121 -1.887962
1.9810597 4.9645185 -1.886647
2.7594023 4.2852035 -1.881146
2.0417063 4.7878146 -1.8871331
2.356204 4.9896407 -1.8851725
2.5226152 3.9748964 -1.869917
2.5654922 5.8878465 -1.8522429
2.5852263 4.2664557 -1.8922192
2.3462348 3.910464 -1.8568752
1.8478664 4.1904035 -1.9118778
3.6537111 5.7636251 -1.8340231
2.6994503 5.4601321 -1.8649036
1.8884341 5.0044765 -1.888083
2.8190989 4.4929276 -1.8708508
2.6831591 4.7938023 -1.8761061
2.8535092 4.6592641 -1.8649474
3.3596382 4.0123687 -1.8435664
3.6215777 3.9952698 -1.8384464
3.6270795 4.9632874 -1.832858
2.2552409 3.9825411 -1.8642076
3.4521382 4.188807 -1.8516968
3.155848 6.0592461 -1.8362654
2.9194942 4.1369729 -1.8676965
3.041549 5.58285 -1.831903
3.8998954 4.9701185 -1.81934
3.6323962 4.2692928 -1.856944
3.5691278 5.5466924 -1.8469076
2.8811483 4.1795516 -1.8729268
1.9904653 4.1961842 -1.8943528
3.6821141 4.1789675 -1.8440416
3.7383533 4.707468 -1.8383663
2.2326264 3.9234982 -1.8819788
2.5104911 5.0685887 -1.8752786
2.9855161 4.7908554 -1.8712043
2.0980279 4.0483899 -1.9027418
2.9870729 5.3082452 -1.8649036
2.9909823 5.8700585 -1.8445789
2.4601743 5.0869327 -1.8732413
2.2458546 3.9180381 -1.8828095
1.6880093 4.9649243 -1.902575
3.8590159 5.3112669 -1.8375926
2.7212913 6.0271478 -1.8521473
3.1441815 4.0330453 -1.8511019
2.4254284 4.2100773 -1.8860291
1.686083 4.5764437 -1.8938372
3.0323915 4.1385283 -1.8577199
2.7966676 4.6979671 -1.8663427
2.988801 5.6112661 -1.831903
1.7433605 4.304719 -1.8943528
3.6914766 4.7395082 -1.8371025
2.3209674 5.1890535 -1.8854645
3.6001809 3.9969201 -1.8335646
3.4019566 5.3685822 -1.8313048
2.235981 6.0430927 -1.8588237
2.5401208 5.3068285 -1.8877515
3.6790373 4.445107 -1.848219
2.2433536 4.4577837 -1.892984
2.5384512 4.5226908 -1.8797798
1.7291584 4.3084755 -1.8935381
2.1672165 5.261229 -1.8875018
2.1880078 5.7271032 -1.878172
2.0967484 4.9147463 -1.8859292
2.0784926 4.7699313 -1.8863978
2.4266362 5.712256 -1.8519973
1.7461873 4.2455883 -1.9168608
2.9789023 5.0449991 -1.8458358
2.2301726 4.4664578 -1.8937491
2.1455121 4.0675092 -1.8739845
2.1125402 4.6750345 -1.8945951
3.4631391 4.4100933 -1.857623
3.4273422 4.4213214 -1.8528694
2.348752 3.9430065 -1.8699106
2.1249118 4.090662 -1.8788728
2.1572802 4.6566043 -1.8953426
2.9861042 4.5642219 -1.8614608
3.6663423 4.2277341 -1.8535484
2.388207 5.6321278 -1.8737491
2.3598118 4.3930502 -1.8914541
3.8896616 3.9284828 -1.8291023
3.0923655 5.223361 -1.8579532
3.3990791 5.6457992 -1.845161
3.0042701 3.9011912 -1.8654429
3.7219915 4.4116745 -1.848878
3.636055 4.2463846 -1.8515115
3.4217055 5.897655 -1.8323413
3.6083515 4.8173285 -1.8408936
1.9141585 5.3764596 -1.8936132
2.6664147 4.1899309 -1.8830386
3.2477751 4.8512311 -1.8386961
1.8126535 5.6846542 -1.8828332
3.1066043 4.9094305 -1.8620554
3.8094373 4.6304927 -1.8333116
2.9904115 4.0722022 -1.8632133
2.8251565 4.6787004 -1.8656448
2.0389662 5.3263502 -1.8922552
2.5395148 5.3196998 -1.8581682
2.4809086 4.9099293 -1.8788956
2.4186473 4.7520175 -1.8816209
2.4441772 5.1363363 -1.8868226
2.4815855 5.8967924 -1.8444657
2.0290439 4.4431505 -1.8969604
2.3962052 4.7445598 -1.8751588
2.2653036 4.8393683 -1.8859292
2.9164474 4.268425 -1.8731618
1.9418848 5.5797119 -1.8963169
3.165751 5.3005743 -1.8415016
1.857082 4.7961888 -1.8998252
2.8540604 5.0929132 -1.8719386
3.5059211 4.6301732 -1.8283107
3.3513603 5.0109425 -1.8440529
2.8952906 4.6289954 -1.8635529
1.8099716 4.427319 -1.9025964
1.8660759 5.857862 -1.8838586
3.5991991 5.2152205 -1.8253224
2.5567789 5.2988224 -1.8877515
3.901195 5.5569067 -1.8239324
2.7077301 4.5500531 -1.8672607
3.0542097 3.8645747 -1.8662082
1.7336442 4.5724263 -1.8993031
2.425066 5.6204896 -1.8750128
1.8164483 5.8932996 -1.8901769
1.985543 4.7263455 -1.8931007
2.3712449 5.6413488 -1.8743809
3.4850619 4.9212184 -1.8446846
2.3802719 4.223094 -1.8813442
3.1403444 6.075942 -1.838508
3.8632262 4.3187771 -1.8237672
2.0602551 5.9047747 -1.8674324
3.5005338 4.5846229 -1.84756
3.006681 5.0196757 -1.8432397
3.2060316 4.8879695 -1.8412923
2.9099951 3.9948943 -1.8730932
1.7663206 5.9283199 -1.8964952
2.0512245 5.1366982 -1.8900543
2.0509024 4.0663538 -1.9002503
2.428081 5.3507233 -1.885116
3.6910741 3.9208629 -1.8356566
3.2529166 4.1564054 -1.8607986
3.2554274 4.3668518 -1.8586711
2.0388472 4.7076402 -1.8945951
2.0848904 4.9299235 -1.889519
1.7740232 4.5490069 -1.8961798
1.734205 5.0994387 -1.9024432
3.368314 5.1674066 -1.8396494
2.1598344 4.8914323 -1.8873649
2.5866673 5.2758865 -1.885116
3.0238459 4.3350201 -1.8636706
2.4058521 4.2064524 -1.8805634
2.1199975 4.0287066 -1.8994199
3.2443957 4.1725216 -1.8636706
1.9352517 4.3579578 -1.8962198
2.3720984 5.1720896 -1.8875018
1.6901586 5.6768117 -1.9015878
2.6281459 5.4884977 -1.8630079
3.1169989 4.2939301 -1.8715689
1.9264495 4.6336474 -1.9044596
3.0663347 3.8549614 -1.8662082
2.4541724 5.5912666 -1.869958
3.7487087 5.0827479 -1.8187416
2.8833294 5.4507413 -1.8390321
2.4621956 4.475316 -1.8856292
2.3675435 4.1052046 -1.8834671
2.5167563 4.3200364 -1.8968095
3.804379 5.395083 -1.8486542
2.5211558 4.6772404 -1.8744409
1.7927679 5.4379568 -1.9004041
3.0238533 5.4045939 -1.8476756
3.60935 4.5403471 -1.8257146
2.6346908 4.2273803 -1.8891588
2.1554811 4.3524079 -1.8852483
2.4498236 5.106535 -1.8779948
2.8096232 5.9462972 -1.8410857
3.3287399 5.4210024 -1.8330994
1.9641236 4.3490472 -1.8978139
3.8554869 4.7390742 -1.8205101
2.153161 4.7366948 -1.8863978
2.0117481 5.6012058 -1.8776406
2.4732761 5.5869942 -1.8712219
2.6439979 4.212842 -1.886099
3.6714375 4.9258208 -1.8316232
1.9175817 4.2119317 -1.8870202
2.1308656 4.2636743 -1.8954228
3.6398211 5.4844942 -1.8428324
3.3901899 5.3872967 -1.8342957
3.6512783 4.7800999 -1.83963
3.4563918 4.6860814 -1.8335032
2.9377723 4.5999289 -1.8628556
3.1241405 5.2022052 -1.8573214
2.5305643 5.0691128 -1.8786739
3.2675884 4.5452971 -1.8542274
1.6570244 4.3445487 -1.8967968
1.8380703 4.7915878 -1.8953426
3.1253655 3.9742911 -1.8647075
3.6200254 4.8014355 -1.838998
2.4900334 5.5774665 -1.8705899
2.7969172 4.5045714 -1.8701327
2.1138604 5.4844875 -1.885775
2.1755474 4.6194043 -1.8848816
2.0236754 4.0759096 -1.8985893
3.1381361 5.3302193 -1.845206
2.0095913 5.1732421 -1.8970281
2.7191527 5.4567075 -1.866799
3.4258659 4.6664782 -1.8548077
2.9668348 5.0608788 -1.8484322
1.9666654 5.3634872 -1.8956503
2.7291911 6.0193734 -1.850983
1.7987117 4.2858481 -1.895982
3.8524644 3.9649663 -1.8291023
2.0813215 5.573709 -1.8769916
2.0380001 5.5453277 -1.8963169
3.0269551 4.7402477 -1.8637344
2.2483714 4.1820812 -1.8874522
2.8200221 5.6979566 -1.831903
2.5210998 4.1470299 -1.8836869
1.787322 4.6890693 -1.9044596
3.6318262 4.53936 -1.8302581
2.004432 4.8257003 -1.8952217
2.4269819 4.0596657 -1.8794817
3.1457496 4.4488068 -1.8593684
3.1348505 4.2901659 -1.8744409
2.3320935 5.6473823 -1.8712219
2.0441499 5.9184198 -1.869902
2.0171268 5.3447132 -1.8956503
3.1015189 3.9694123 -1.8572357
1.6694355 6.0762739 -1.8828672
1.7922788 4.8306746 -1.9035614
3.7733984 5.9463167 -1.836261
3.6376917 3.9628108 -1.8335646
3.1944022 4.8437161 -1.8594199
3.8712614 4.2660007 -1.8449246
3.1360977 4.4647827 -1.8621582
2.3856902 5.4069829 -1.8633608
3.2335398 4.1856589 -1.8651066
3.4136906 4.22261 -1.8523945
2.1948297 5.843895 -1.8637278
2.1160641 5.915319 -1.876693
2.1877961 5.5124335 -1.8705007
2.282686 4.2828903 -1.8836869
3.4449837 4.7015128 -1.8354506
2.3817732 4.9629364 -1.8802906
3.1366928 3.9629912 -1.8639604
2.1401093 4.5143957 -1.8952793
2.2705684 5.6744428 -1.8718536
3.8003361 5.9062667 -1.8308126
2.4907162 3.9798231 -1.8643376
1.6915359 4.4542933 -1.8946258
2.6681902 6.0612965 -1.8550584
3.145124 4.6626821 -1.8637344
2.3753784 4.3888555 -1.892984
2.6674876 5.2312489 -1.8837982
3.7572591 4.3417993 -1.8383359
1.7075813 6.0656638 -1.8828672
2.6675203 4.580225 -1.8694148
3.8136172 5.05337 -1.8235276
2.2234495 4.3346429 -1.8914949
1.6608815 5.7090497 -1.9094945
3.3367271 4.0362873 -1.8450024
2.7204406 4.9526305 -1.8732413
3.4837747 5.0787497 -1.8365625
1.9205661 5.2089467 -1.8977255
1.8375974 4.2653422 -1.8943528
2.6528668 5.4955611 -1.8686944
2.593658 5.3040433 -1.8614136
2.8700829 4.1916552 -1.8744209
3.8947978 4.5564318 -1.8326797
3.4239752 5.3658881 -1.8342957
3.0701418 4.1082797 -1.8569846
2.3914225 5.7291493 -1.8526148
2.2935662 4.1406999 -1.8810757
1.7464039 5.669642 -1.9048824
2.7429616 4.5441713 -1.8722868
2.5405312 3.94821 -1.8643376
2.4994388 4.3215413 -1.8937491
3.5480778 5.263948 -1.8289115
3.4162879 4.6688151 -1.85349
1.7826051 4.9119701 -1.8952217
1.9073263 4.2426329 -1.8976117
3.7154083 4.8879619 -1.8303885
1.9865659 4.5941038 -1.8991042
2.6169951 5.5898051 -1.8408842
2.099988 4.1055646 -1.8796874
2.4322345 4.1912527 -1.8805634
2.6718812 4.9747257 -1.8718832
3.7864757 4.3614573 -1.8501956
1.8740711 4.23946 -1.8902789
3.5500953 4.3355398 -1.8562649
3.4649441 5.6146135 -1.8474898
1.7322651 5.9502201 -1.9002863
3.6128907 5.4999828 -1.8422502
3.3923116 4.4624419 -1.856944
2.9761674 5.3984389 -1.8384147
2.8517241 4.1929541 -1.8706853
3.1055281 5.3514824 -1.8458232
2.1953468 4.3468809 -1.890714
1.7802327 5.7067814 -1.8867277
1.8353386 4.6605554 -1.9006344
2.0785017 4.4039474 -1.890714
1.8473946 4.2511525 -1.8902789
2.9400096 4.2454443 -1.8709556
2.0978436 4.6816483 -1.8945951
3.0605676 4.1223683 -1.8591905
2.188292 4.6277494 -1.8901119
2.1973109 6.0552301 -1.8582251
3.7954171 5.062284 -1.8223312
3.4175801 4.72614 -1.8367487
2.0970194 4.4073977 -1.895399
2.4545312 4.5730014 -1.8812506
2.6552305 4.2014003 -1.8845688
1.9321258 4.4701018 -1.890714
3.8132532 5.6361709 -1.8284171
2.2728825 5.4102783 -1.8824805
3.2323995 4.3932371 -1.8614608
1.670908 4.8759484 -1.9043086
2.3569219 4.5337324 -1.8863761
2.2541001 5.2143493 -1.8841065
1.682615 5.132411 -1.9081872
2.7384689 4.7516084 -1.872619
3.1922786 5.167366 -1.8592168
3.2333832 5.4562421 -1.827117
1.7537109 5.2872186 -1.9046997
3.5950694 4.5516634 -1.8257146
3.2054625 5.1346083 -1.8522668
1.7818184 4.2189116 -1.9118778
2.3130984 4.4219952 -1.892984
2.5880885 5.0251784 -1.8739206
3.2590704 4.1373339 -1.8564906
1.8614659 4.2470045 -1.8910936
2.5705328 4.5130978 -1.8827212
2.1828785 4.723073 -1.8863978
1.9640604 4.2086077 -1.8943528
2.4662061 4.5603733 -1.8790445
2.8335586 4.8822694 -1.8712043
3.0091588 4.372447 -1.8722868
3.0019972 4.1789618 -1.8636024
2.1386089 5.7599034 -1.8825947
2.3159709 4.8091111 -1.883775
2.4821093 3.9938381 -1.8675259
1.97565 4.5887518 -1.8952793
2.0546243 4.4252906 -1.8946182
3.0234468 5.8426347 -1.8416681
3.7569156 4.6853738 -1.8364707
2.1672513 5.5367985 -1.8756932
2.5939298 4.0909719 -1.8797828
2.2043121 4.8674526 -1.8859292
1.6776726 5.9717546 -1.9021817
1.7623285 4.3127775 -1.9008704
2.4448781 5.34307 -1.885116
3.020478 4.1495318 -1.8584552
3.5868845 6.0874677 -1.8427993
3.833946 5.3293915 -1.8375926
3.7999935 4.3569617 -1.8192236
2.7862751 4.2677794 -1.881146
3.7754056 5.3897214 -1.8422502
3.0796587 4.7241535 -1.8691672
1.8505383 4.1613631 -1.9002503
3.3889747 4.2736163 -1.8614608
2.2584329 4.6729589 -1.8812506
2.891665 4.2897396 -1.8746326
2.898706 4.1628737 -1.8714325
2.2869213 4.6570106 -1.8805151
2.9955313 5.8333454 -1.835264
3.0825453 4.4928317 -1.8593684
3.3156865 4.318913 -1.8579736
2.3809922 4.5907764 -1.8738972
2.3834765 3.9028656 -1.8625783
3.2068243 4.177959 -1.8564906
2.7544804 3.9352973 -1.8626047
3.8123395 3.9983642 -1.827744
2.8013577 5.1113267 -1.8686441
3.5955949 5.5113044 -1.8422502
2.0800083 4.9400883 -1.8923912
3.4553235 5.8913794 -1.8357049
1.9660317 4.4713898 -1.8969604
2.3246131 4.7883458 -1.878031
3.5506136 4.3083339 -1.8487951
2.6760528 4.161829 -1.8753885
3.1900752 3.9153645 -1.8624661
2.3767078 4.091423 -1.8802787
2.8603928 4.8578653 -1.8684877
2.3848734 4.0760465 -1.8762935
2.9931309 3.9120717 -1.8662082
3.6834872 4.9096842 -1.829771
2.0235422 5.3362532 -1.8936132
1.7650046 5.084909 -1.9010072
3.0609782 5.8252211 -1.8422502
2.137311 5.4936323 -1.8917049
3.0368924 4.9528561 -1.8620554
3.3338499 4.3143864 -1.8607632
2.2912602 5.6743054 -1.8743809
3.2004139 5.2641397 -1.8371798
2.7030215 5.7775664 -1.8384833
3.6697636 4.2048101 -1.848116
1.8511645 5.9935379 -1.8736062
1.6579753 4.9789548 -1.9040458
2.8995531 5.4399729 -1.8384147
2.5424905 5.55375 -1.8705899
2.9566231 3.9535892 -1.8707985
3.0542552 4.5121117 -1.8593684
2.9434435 5.3282256 -1.8636397
3.4127276 4.9831562 -1.8478438
1.8903842 5.2279501 -1.9005152
1.6674141 4.4751258 -1.899408
3.7624791 6.0551629 -1.802425
3.711818 5.9940047 -1.8384404
3.678905 4.7540722 -1.8383663
2.1099465 4.7601705 -1.8878684
2.8432934 4.4688077 -1.8679788
2.6760824 5.5786424 -1.8458232
3.876364 5.8612647 -1.8319024
2.5427413 4.0948339 -1.8696321
3.1718199 4.2559242 -1.8722868
3.7718825 4.834868 -1.8279188
2.1298878 4.5294385 -1.8991042
3.3919895 4.7375622 -1.8348017
1.7217206 4.3094864 -1.8927232
2.2254066 4.5935311 -1.8841345
2.3718667 4.9822145 -1.8851725
3.3760188 4.4700656 -1.8555855
2.0092332 4.0789928 -1.8969282
2.4116035 5.7268763 -1.8544669
3.828006 4.7661796 -1.8217449
3.2897527 5.2245183 -1.8415016
2.2607262 4.4572883 -1.8960444
3.7864208 4.3339601 -1.842948
2.2474539 5.043664 -1.8865672
3.1898291 4.6185017 -1.85966
2.6369464 4.3767939 -1.8863761
3.2683158 5.2267413 -1.8384147
3.3965037 4.2556491 -1.8579736
2.2382381 5.488061 -1.8692027
2.2264917 4.7006125 -1.8856626
1.9074621 5.6136022 -1.8698516
3.7414658 5.4133372 -1.8422502
2.0990448 4.3758216 -1.8836869
1.7869742 4.539978 -1.8946182
2.4447327 5.9390039 -1.8522429
3.2426381 3.9254119 -1.8422778
3.7897854 4.0378265 -1.8324974
2.1290634 5.5414639 -1.8724481
3.7260046 4.3884869 -1.8436069
2.8566353 5.6818247 -1.8325012
2.3958981 4.521656 -1.8893647
2.6395187 4.4536538 -1.8761032
1.7738078 4.3021426 -1.8984267
3.2116773 4.2118516 -1.8679788
1.9260399 4.3740644 -1.901002
3.0260463 4.3675909 -1.8744409
3.242209 4.5703564 -1.8562649
3.0432234 4.5263371 -1.8614608
2.4508502 4.9270968 -1.8795933
2.5509114 3.9371407 -1.8627435
3.2906165 4.5472422 -1.85966
3.2757721 3.9026623 -1.8437485
1.7063259 5.6660566 -1.8996114
2.9295347 4.8010654 -1.8637344
3.223824 3.9528856 -1.8459544
3.4827147 3.8909991 -1.8392582
3.7890685 5.638586 -1.8250535
1.7388536 4.4517927 -1.901002
2.2788639 4.677516 -1.8863978
2.5756521 4.28087 -1.8952793
2.4624772 5.6968975 -1.8519973
1.9122896 4.3800931 -1.901002
2.9319675 4.2622948 -1.8746326
2.830451 4.2185183 -1.8744209
2.6832073 5.2550621 -1.8601156
2.5833235 4.6517363 -1.8773129
2.6101964 6.0844135 -1.8544762
3.712235 4.7353282 -1.8402618
2.6912348 5.2169466 -1.8831395
2.8956587 4.2668295 -1.8680146
1.9253058 4.7492003 -1.8923538
2.9637361 4.1168289 -1.8714325
3.5662344 4.5216861 -1.8442657
2.9495306 4.3881721 -1.8643887
3.6172101 6.051569 -1.8384404
3.780642 5.0757084 -1.8229294
1.9944682 5.3351398 -1.8895389
2.1590588 3.9810224 -1.8886231
2.864289 4.4398384 -1.8629528
2.6971958 5.7887111 -1.8408763
2.5717473 5.2873745 -1.8864337
2.9199407 5.0902596 -1.8490812
2.8551295 5.4805846 -1.8433537
3.8776479 4.2803411 -1.8172766
2.058254 5.7931318 -1.8838586
2.1871588 4.4856224 -1.892984
2.7909098 5.72926 -1.8366888
3.7307472 4.876265 -1.8303885
3.2000089 5.4780927 -1.8277152
2.2644346 6.0324888 -1.8588237
2.3397949 3.8541625 -1.8794874
2.8654103 5.3447704 -1.8560575
3.6614377 4.4522834 -1.8462424
2.1960585 5.4826646 -1.8620628
2.4438043 4.0302668 -1.8723081
3.0912259 5.5489454 -1.8301082
2.4758461 5.6786509 -1.8482929
2.346525 4.2566614 -1.8868099
1.7146974 5.7169394 -1.8834823
2.1512558 5.8965373 -1.874841
2.1429746 4.8947673 -1.8859292
2.4937453 4.8971128 -1.8768035
1.8039095 4.5412006 -1.8977412
2.7746251 5.4180541 -1.8636397
3.7874811 4.6631446 -1.8371025
2.4714944 4.0047269 -1.86912
1.9230986 5.5822201 -1.8949991
3.3707387 5.9379725 -1.8351444
2.0936198 4.1252079 -1.8862053
3.3320541 4.7385359 -1.8561255
2.9561625 5.6349955 -1.8336976
2.658637 4.3506131 -1.8818932
2.5919857 3.9190221 -1.8659316
2.4735684 4.462677 -1.8833873
3.5860546 5.2312098 -1.827117
3.4816523 5.308116 -1.8289115
1.9118836 4.6396761 -1.9044596
2.5108223 5.3458443 -1.8620628
1.7020285 5.740458 -1.8899732
3.2185259 5.1197066 -1.8503712
2.7620573 5.1541038 -1.8752328
2.8356023 3.8544171 -1.8547968
2.5543215 5.6396112 -1.8470582
2.8727312 5.6694264 -1.8313048
2.7182822 3.935797 -1.8540159
2.7877753 4.3535528 -1.8731618
1.8577929 5.9815273 -1.8705192
3.3743498 4.7038636 -1.8548077
3.1223266 5.3416986 -1.8458232
2.2777421 4.3063617 -1.8914949
2.2547548 5.4792495 -1.8685538
2.6133094 5.0354333 -1.88139
2.0798907 5.1150417 -1.8865672
3.1784923 5.2840667 -1.8390321
2.3230181 5.3868856 -1.8818216
2.2013218 4.0188446 -1.8666521
2.8856146 4.1719589 -1.8714325
2.2239497 5.713243 -1.878172
1.8399384 5.6260762 -1.9002703
2.8653154 5.4580851 -1.8384147
2.8705211 5.0662971 -1.8666674
2.9212012 5.8922844 -1.8410857
3.2609873 6.0055008 -1.8368262
2.3246939 4.2644291 -1.8852483
2.2103264 4.4618821 -1.888394
2.6641309 4.9980736 -1.8779948
2.476851 4.3451653 -1.8975743
3.0611987 4.9400911 -1.8627142
3.1068013 5.2103696 -1.8566896
1.9613056 5.5789204 -1.8982936
2.94067 5.0412135 -1.8712796
3.2585402 3.8488529 -1.8594773
2.9212844 4.6059785 -1.8614608
3.7693219 5.4173036 -1.8480721
1.7347192 5.2855897 -1.9019099
2.1803203 4.040657 -1.8707255
3.7543561 4.843678 -1.8266841
3.3834932 5.1552052 -1.8390321
2.5081909 4.6884408 -1.8758768
3.5700903 4.9997611 -1.8316232
1.8134384 4.1836133 -1.9027418
2.5054448 4.5304341 -1.8761032
3.0736845 4.9256563 -1.8607374
3.890161 4.9898458 -1.8223312
2.5971081 3.9002123 -1.8603524
2.2869678 5.4597297 -1.8666064
2.2109654 4.6004996 -1.8841345
3.5091414 5.0473609 -1.832858
3.8278301 5.9911923 -1.797125
2.7826316 5.5092239 -1.8408842
1.947796 4.2081103 -1.8910936
3.0213189 4.9623709 -1.8620554
2.1591275 4.0623665 -1.8747991
2.0340574 4.9612026 -1.8931091
3.2828009 4.3463111 -1.8586711
2.134871 3.9961088 -1.8894535
2.8031995 4.4830627 -1.8643887
3.0881312 4.914382 -1.8600787
2.4906418 5.6638656 -1.8458232
2.318485 4.1394181 -1.8858582
2.2071218 3.9504104 -1.8869618
1.9252722 4.1353478 -1.9035722
2.1121032 5.7716961 -1.8832265
2.991056 4.9828725 -1.8627142
2.1417978 4.359158 -1.8852483
2.395725 3.895359 -1.8625783
1.8803418 5.3883796 -1.8936132
2.7257285 5.2032714 -1.884457
2.7905591 4.3429289 -1.8702204
2.3585074 3.9030743 -1.8568752
3.524092 5.8392954 -1.832902
2.1369138 4.0823436 -1.8780581
3.7621665 4.3749743 -1.848219
1.7735405 4.9350181 -1.902575
3.5886052 5.5386715 -1.8480721
2.1721966 5.0663342 -1.8830801
3.1170883 4.9362173 -1.8386961
2.9592371 5.3172989 -1.8630079
2.4336848 4.931417 -1.8781983
2.2403026 5.427937 -1.8837982
1.7406175 4.9408112 -1.9003692
2.0694671 4.7900667 -1.8922806
2.7645373 5.2105932 -1.8594662
3.2025146 4.4104371 -1.8600658
2.051424 4.6961012 -1.8923538
2.7551131 5.4428935 -1.8680626
1.6693947 4.9614034 -1.8988986
2.594312 4.6370635 -1.8744409
3.0275769 3.8807883 -1.864678
3.7510376 4.411603 -1.8224691
3.8755167 4.3052068 -1.8231182
1.9856796 4.823391 -1.8915453
2.9535415 4.2224312 -1.866544
3.6761646 3.929713 -1.8342619
2.2526405 3.9015405 -1.8778265
2.7343524 5.2329011 -1.8614136
2.9280438 4.4159822 -1.8686969
2.7005606 5.2482924 -1.8607646
2.6477289 4.4357872 -1.8716912
3.1651812 4.4465132 -1.8628556
3.0174637 5.0198236 -1.8451867
1.8748704 4.8774981 -1.8952217
2.4593465 4.0272508 -1.8746992
2.7038944 6.039165 -1.8533119
2.0800343 5.4994249 -1.8864337
2.8732955 4.0236411 -1.8738585
1.8665609 4.3878179 -1.8962198
3.8091958 5.3658938 -1.8422502
3.192827 4.2144561 -1.8643887
2.0507951 4.5455298 -1.8914541
1.9460003 5.3590131 -1.8915762
3.6408589 4.7975736 -1.8421574
1.6733006 5.4778652 -1.9010831
1.6952686 4.3219228 -1.8935381
1.7619284 5.6569262 -1.9022468
1.8080468 4.677155 -1.9029295
2.6459117 4.3605337 -1.8826401
2.3283911 4.5484509 -1.8863761
3.2184343 4.814158 -1.8554667
3.5891876 4.9766912 -1.8291537
2.8380241 5.3743882 -1.8604807
2.792264 3.897259 -1.8587009
2.3725731 4.6097808 -1.8790445
1.9866582 4.442101 -1.8891526
3.2998643 4.3404355 -1.8607632
3.1856711 5.493062 -1.82951
2.5323544 4.3001914 -1.892984
2.6748333 5.2253757 -1.8831395
3.1627591 4.6256928 -1.8562649
2.0801454 4.6814194 -1.8916066
2.7653675 5.9986267 -1.8498187
3.1645637 5.4964428 -1.827117
3.5851436 4.5163555 -1.8469012
2.5281157 3.9561713 -1.8643376
3.3333266 4.5160279 -1.85966
3.8979893 4.2415924 -1.8449246
1.6754273 4.5921168 -1.8985223
2.9757636 4.3974967 -1.8730047
1.7948864 5.415463 -1.8929342
2.6634171 5.473578 -1.8636397
2.5881264 5.619988 -1.8458232
3.2851398 4.0903616 -1.8485925
1.7962435 5.893539 -1.8882815
3.7900016 5.9311814 -1.8351715
3.5932009 4.8286405 -1.8408936
3.5056393 4.1072388 -1.8412359
3.137619 4.9344049 -1.8419412
3.5667548 5.2559233 -1.8301082
2.9802802 3.9334681 -1.8700331
2.6484232 4.8023796 -1.872619
3.6886351 4.8843799 -1.8242146
2.0604539 4.7899017 -1.89081
1.741504 6.040175 -1.877928
3.4259765 5.1316462 -1.8402669
2.9576786 4.779356 -1.8623763
3.1833351 4.8600278 -1.8620554
3.378145 4.9997969 -1.8459485
1.9382535 4.1292791 -1.9035722
2.5217998 5.3113785 -1.8864337
3.4983096 5.2971525 -1.8289115
1.931073 5.9522748 -1.8686671
3.1587212 4.8557997 -1.8561255
2.8162692 4.6971731 -1.8698292
2.9880178 5.0242047 -1.8412923
2.3290856 5.7834935 -1.8612583
2.985996 4.3679628 -1.8658248
2.8182037 4.2289391 -1.8751681
1.8074727 5.6465044 -1.9035646
2.0578308 4.0485706 -1.8944367
3.1785004 4.250937 -1.8722868
1.9252336 4.493114 -1.8985223
1.7604699 6.0346742 -1.877928
2.7403178 4.3150244 -1.8871233
2.3107598 4.5491118 -1.8833873
1.8796052 4.38025 -1.8954228
3.1989231 3.9730639 -1.8459544
2.1801634 5.2456927 -1.8841065
3.8173857 4.3492842 -1.8211708
2.3119788 4.1430559 -1.8858582
2.797225 5.193119 -1.8594662
2.823797 4.9009519 -1.8752786
3.2578599 5.2467041 -1.842119
1.657153 5.486702 -1.9024411
2.5262034 4.8846688 -1.8781983
1.7993239 4.9098315 -1.8966925
2.8246763 5.3899865 -1.8630079
2.4176922 5.1218257 -1.8779948
2.5396786 5.6545625 -1.8495277
1.6980606 5.0978179 -1.8974173
1.8282799 5.2618985 -1.9046997
3.3300378 4.7766986 -1.8335032
2.9468558 5.0157113 -1.8646909
3.1792703 3.9145868 -1.8594773
1.89934 5.6482978 -1.8802367
2.2154207 5.4401789 -1.884457
3.6828089 4.1532459 -1.8372508
2.3373027 4.9902439 -1.8823828
3.546566 5.5497961 -1.8439968
3.1362267 4.2636967 -1.8665428
3.2960808 4.5246782 -1.8542274
3.1269157 4.4666414 -1.8607632
2.3998611 5.6106648 -1.8686944
3.0391514 5.8280077 -1.8399214
1.8815873 5.6542363 -1.8802367
3.3703318 5.6785879 -1.8492366
3.6498318 4.4666805 -1.84756
1.9809541 5.805985 -1.8794357
2.8898995 4.8381791 -1.8678087
3.6565146 3.9582167 -1.8370514
1.747826 5.0868917 -1.8995712
2.1982129 4.21487 -1.8898432
1.756858 5.4437342 -1.8983668
1.8643967 5.6619196 -1.8808856
2.4993448 5.8872151 -1.8438675
2.4764388 5.3451691 -1.8903869
3.7324691 6.0918074 -1.8066652
3.1491892 5.5096622 -1.8283134
2.2278512 4.3095956 -1.8829058
2.265357 5.8087521 -1.8612583
2.579098 4.4953475 -1.878309
1.898494 5.3860006 -1.8949713
