# .PCD v0.7 - Point Cloud Data file format
VERSION 0.7
FIELDS x y z
SIZE 4 4 4
TYPE F F F
COUNT 1 1 1
WIDTH 1511
HEIGHT 1
VIEWPOINT 0 0 0 1 0 0 0
POINTS 1511
DATA ascii
-2.5836012 6.5531383 -1.7791042
-2.500855 6.4351077 -1.7970318
-1.654869 5.3464613 -1.9144634
-2.3572292 6.9043293 -1.7803297
-2.4818246 5.2101297 -1.9793221
-1.6603215 6.0143228 -1.7948122
-1.7963116 5.2360277 -1.959884
-2.0923116 4.9208913 -1.9820166
-3.5011256 6.2740626 -1.8177955
-3.6332326 5.7237163 -1.9027979
-3.2016823 6.9179959 -1.7961718
-2.0052619 5.2216516 -1.9821424
-2.2660284 5.3442998 -1.9289248
-3.349365 5.6159701 -1.8887353
-1.835426 5.2422261 -1.9670641
-2.9204535 5.5025153 -1.9110276
-3.3700931 5.9890566 -1.8480382
-1.6128395 6.1644311 -1.7787915
-2.0091176 4.785356 -1.9756075
-3.7054775 6.1983104 -1.8278658
-2.3689339 6.4848323 -1.7970318
-3.2638743 5.3904939 -1.9350373
-3.4668896 6.8324518 -1.80609
-2.1438725 5.521471 -1.9015878
-1.6137735 5.4819708 -1.8963298
-2.0594721 5.5615592 -1.9042236
-3.4014094 5.7713552 -1.878346
-1.5653323 6.1806126 -1.779956
-2.0059121 6.9682031 -1.7685304
-3.3813677 5.9650512 -1.8435533
-1.7350641 6.1550093 -1.7857779
-2.0140615 5.0346727 -1.9731672
-2.3618629 5.48735 -1.9193777
-2.5447383 5.4133191 -1.9220132
-3.0256021 5.5383945 -1.885954
-2.5189292 6.4218545 -1.7953972
-2.1739702 5.5218682 -1.9055411
-3.0029728 6.4059682 -1.7875847
-1.6462334 5.2518873 -1.9476779
-2.5618556 5.2088742 -1.9918752
-2.4009602 5.0726008 -1.9893224
-1.5620598 5.646801 -1.8791863
-2.1432333 6.9494543 -1.7741735
-2.5144532 5.0235748 -1.9914765
-1.8393674 5.3155875 -1.9249244
-2.8977251 5.0622001 -2.0023365
-2.6811249 6.1331754 -1.7959024
-1.7434262 4.8648715 -1.9664272
-3.549896 5.7510524 -1.8963938
-2.7846913 5.2322521 -1.9730638
-3.5747731 5.5684619 -1.9132628
-1.8619643 5.586987 -1.8897282
-1.6802292 5.624599 -1.8831395
-3.3409848 5.1995625 -1.9561788
-3.4054058 6.843832 -1.8016268
-3.3921678 6.3095622 -1.8119656
-2.6356549 5.4119511 -1.9010073
-3.0936935 5.6826639 -1.8671987
-2.2531891 5.9224911 -1.8253224
-1.9984851 4.9577374 -1.9812694
-2.1347823 5.94592 -1.81934
-2.7876339 4.8794312 -1.9921944
-1.6416322 7.0112929 -1.7551916
-2.9928839 6.2834082 -1.8128324
-3.673075 5.2691698 -1.975475
-2.2154224 5.1543031 -1.9886043
-1.9459 5.974268 -1.8085716
-1.5530918 5.8869576 -1.8137187
-2.1446633 6.532043 -1.7888592
-3.7617304 6.1598139 -1.8268058
-2.8332074 5.3604622 -1.915936
-2.4668365 6.1914711 -1.7874932
-2.3288004 6.5013971 -1.7975767
-3.1878078 5.2285018 -1.9367067
-2.714478 5.3792071 -1.9029548
-1.5532891 5.3749008 -1.913766
-3.4807608 5.2338839 -2.0280924
-3.6058969 6.7864609 -1.8120409
-2.7862959 6.4926486 -1.7849344
-1.5786748 5.18186 -1.9709612
-2.418267 5.4524007 -1.9160832
-3.2891157 4.8239031 -2.0044289
-1.616508 7.0032411 -1.7516005
-3.7291431 6.735033 -1.8155123
-3.4307332 5.4369769 -1.9242327
-2.8564224 6.7614994 -1.7921293
-3.2288084 4.882463 -2.0100081
-1.800616 4.8558216 -1.9710175
-2.9188745 4.8064437 -1.9936306
-2.5778999 5.679049 -1.8618758
-1.6183389 4.9001169 -1.9633671
-2.523396 5.845778 -1.8348939
-2.7461145 4.9136124 -1.9957845
-3.587532 5.3988857 -1.9415197
-1.7280318 6.7253113 -1.7515433
-2.1621468 6.9334698 -1.7716084
-3.5760725 6.1116681 -1.8471581
-2.8596933 6.4943848 -1.7934146
-2.6940401 5.7859707 -1.83968
-2.6543274 5.407033 -1.9023052
-3.371557 5.0386024 -2.0219564
-2.6111186 5.6575675 -1.8600235
-2.4285774 6.2086387 -1.7880539
-3.3779516 5.2380128 -2.0096436
-2.9525213 6.3003502 -1.8122877
-1.9194559 5.073483 -1.9739023
-2.2539415 6.9204402 -1.7757125
-2.8411157 4.8484855 -1.9921944
-1.8199736 6.3615909 -1.7734782
-2.0049293 6.7003732 -1.7653238
-2.1018293 6.3206596 -1.7863721
-2.2923145 5.2512789 -1.9639792
-3.696394 4.8053703 -2.0219564
-2.2091081 6.1071148 -1.8160517
-3.7264326 5.6909437 -1.9097841
-2.3570805 5.0828519 -1.9857323
-1.8821516 5.7709389 -1.8579532
-2.2574177 4.8576016 -1.9857526
-1.6337146 5.4858751 -1.8997246
-3.3536129 5.0460453 -2.0205982
-1.9479924 5.0526295 -1.9702258
-1.8308913 5.1041365 -1.9731672
-2.7331772 6.3713455 -1.8052046
-1.7999775 6.3672771 -1.7734782
-3.7674205 5.0738773 -2.0399518
-2.120976 5.7982349 -1.8415016
-3.0480239 6.7091789 -1.7998248
-3.2177839 5.2384319 -1.9799942
-1.825986 5.7829857 -1.8560575
-2.123893 5.1866379 -1.9864502
-2.8438914 5.315918 -1.938485
-1.650259 4.8933597 -1.9648972
-1.7337104 5.3332448 -1.9186479
-2.1220031 5.5502472 -1.8743953
-3.0457606 5.5338497 -1.8878064
-3.5081553 5.9471693 -1.8575684
-2.9497986 5.2210722 -1.9981891
-2.2988076 5.3282337 -1.9282457
-1.7278788 6.6027369 -1.7746929
-2.7954009 5.3458385 -1.9398028
-3.0357344 5.1999164 -2.0070169
-3.5318394 6.5335822 -1.8152153
-3.0176165 5.712636 -1.8642075
-2.0792706 5.9675798 -1.8199382
-1.6711417 5.063766 -1.9760389
-2.666271 6.3808661 -1.800301
-2.003087 5.2741313 -1.9312011
-1.9074186 6.1338601 -1.7945106
-1.8931103 5.4377174 -1.9119478
-2.891319 6.7550621 -1.7941813
-3.1284151 5.2769279 -1.975382
-3.0708358 5.2735267 -1.9641811
-3.3324139 6.1757994 -1.829178
-2.2579739 5.512692 -1.8795878
-1.6793392 5.7897305 -1.8440529
-1.7281353 4.8703241 -1.9664272
-3.3114061 5.242403 -1.9984428
-1.666842 5.1502657 -1.9694905
-2.9500046 5.0427756 -2.0058236
-3.7607973 5.3262968 -1.9538676
-2.7854388 5.767972 -1.8468587
-3.4978211 5.3327227 -1.9603108
-2.7910864 5.1153646 -2.0002444
-2.0895355 6.6764946 -1.765854
-3.1626656 5.4329324 -1.9299824
-3.6680968 5.5211873 -1.9168522
-2.4549408 5.4485993 -1.8860787
-1.8589064 5.4495053 -1.9119478
-1.817088 5.2426848 -1.96491
-3.4237247 5.3468261 -1.9508332
-1.595434 5.0745158 -1.9708087
-2.6584198 5.8045225 -1.8402781
-2.2092304 6.9307861 -1.7746866
-3.2320433 6.637547 -1.8034158
-2.219491 6.5171633 -1.7915833
-2.5600767 5.8298082 -1.8348939
-1.9661574 6.3420634 -1.7802055
-2.1965191 5.5354304 -1.8789388
-3.2534876 6.1916666 -1.8226398
-1.5643634 4.9176149 -1.9633671
-3.2133737 5.6466169 -1.8755741
-3.1105058 6.2496738 -1.8188258
-1.969323 6.9645715 -1.7649392
-2.416986 5.8761296 -1.8307064
-2.5843477 5.4091744 -1.9266251
-2.3257711 5.9169269 -1.831903
-1.8387499 6.1507998 -1.7933464
-1.8016734 5.768743 -1.8491075
-3.4040942 6.5662212 -1.8070071
-2.9727788 6.0357828 -1.8059932
-1.5566244 4.7811255 -1.957864
-3.48311 5.3468719 -1.9615744
-2.8035471 5.759192 -1.8468587
-1.6402266 5.3588133 -1.9172531
-1.9535525 6.1454291 -1.8020791
-1.5565314 5.2538643 -1.9383438
-2.5323243 6.0073333 -1.8236202
-2.5302219 5.0156512 -1.9914765
-2.2548261 6.6510143 -1.7732742
-2.3458288 5.1003852 -1.9900405
-3.347337 6.6083398 -1.8100853
-1.5457313 6.7596464 -1.7488934
-3.6890895 6.4794869 -1.8229108
-2.6641147 6.1468611 -1.7975841
-3.2598808 5.4858551 -1.9087977
-1.83898 6.7178216 -1.7573736
-2.2179928 5.7801628 -1.8470582
-3.4878576 5.1913266 -1.9814929
-2.4996963 6.5814757 -1.7780442
-2.2717798 5.6678243 -1.869958
-2.2820585 5.3354292 -1.9282457
-2.2577643 5.7749567 -1.8501451
-2.4234917 6.8854499 -1.7813559
-3.3890004 6.8649373 -1.8046023
-1.756222 4.852407 -1.9633671
-2.5692599 5.6041026 -1.8895451
-3.4879739 6.5505352 -1.8136764
-3.1886945 5.2650223 -1.9826297
-2.3495421 4.7971973 -1.9797752
-2.0979488 5.3902893 -1.9214548
-1.5325199 5.4915686 -1.8915762
-2.9522495 5.8853531 -1.8434145
-3.5343914 5.3153925 -1.9622062
-2.6300316 5.395514 -1.9292606
-2.7835343 5.5348229 -1.8996543
-3.1179068 5.6846561 -1.8713863
-1.6509119 6.6045499 -1.7697892
-1.7499012 5.1305017 -1.9724319
-2.7577298 5.5265269 -1.8933359
-2.4930501 6.0195961 -1.8224559
-2.2100132 5.5116115 -1.906859
-1.8566725 5.3115544 -1.9256221
-2.6209674 6.1528645 -1.7942206
-2.3477702 5.2431555 -1.9695584
-1.7874274 5.3273468 -1.9228324
-2.7388082 6.1076345 -1.7959024
-1.838588 5.6146431 -1.8627118
-3.6840286 6.2065983 -1.8268058
-1.7046864 6.5988255 -1.7719686
-2.9350638 5.4882808 -1.9091319
-1.7326859 5.2377677 -1.952704
-2.0955021 5.9538078 -1.8175452
-2.9124641 6.0565968 -1.8037508
-3.5958912 5.1922569 -2.0386343
-2.2730927 5.5003357 -1.8776406
-3.113297 6.3788438 -1.7939448
-1.9513689 5.2874904 -1.9291087
-1.8322301 6.9799051 -1.7592959
-2.8319557 5.59513 -1.8729888
-1.9993907 5.5593653 -1.8963169
-1.96132 5.5628996 -1.8930224
-2.8495209 5.586205 -1.8729888
-1.9382467 5.758348 -1.8598486
-2.3057618 6.5014362 -1.7953972
-1.9503008 4.9729052 -1.9797752
-3.3116331 4.8243961 -2.0093107
-2.694829 5.2410507 -1.9608406
-3.4273901 5.7737727 -1.8830032
-1.615209 5.6318288 -1.8791863
-2.824826 5.9306135 -1.8387572
-2.1141784 5.3819237 -1.9207758
-2.4027565 5.2925053 -1.931641
-3.7515707 6.4703407 -1.829067
-1.7780553 5.6083126 -1.8542737
-2.8029485 4.8706498 -1.9921944
-2.9310799 6.3061104 -1.8111979
-2.0148654 6.5510964 -1.7828656
-3.0424011 6.0332589 -1.814402
-1.9285119 5.429256 -1.9133059
-2.7586639 5.3822017 -1.9107434
-2.8220122 4.8682618 -1.9950664
-3.0150568 5.0085282 -2.0072184
-2.1593895 5.2587223 -1.9472414
-3.3882601 5.2178469 -2.0056901
-3.2090807 5.4144707 -1.93251
-3.1196146 5.5231614 -1.8964498
-2.1779387 5.9485421 -1.824724
-2.5930498 4.9834595 -1.9914765
-3.3193603 4.8031416 -2.0044289
-3.0574434 6.9765949 -1.7946841
-2.5195212 5.4315534 -1.8899732
-3.0051122 5.7105985 -1.8618145
-2.467824 5.0487218 -1.9921944
-2.8892949 5.7508469 -1.8564305
-3.6313429 5.2796021 -1.97042
-1.7728294 5.4484463 -1.9017621
-2.9056358 5.7383299 -1.8552341
-3.402688 5.2227268 -1.974353
-2.1116517 6.6735778 -1.766914
-3.2519853 5.257278 -1.9918538
-3.5845599 6.7977548 -1.8120409
-2.9525852 5.5004206 -1.9154505
-3.0611491 4.9606786 -2.0009418
-2.3523757 6.2440648 -1.7897357
-1.9625899 5.4170299 -1.9133059
-2.5872946 5.9796944 -1.8224559
-2.3455682 4.8993487 -1.9768438
-3.0450351 5.4649949 -1.9198732
-3.4147122 6.3039699 -1.8135554
-3.1617656 5.2597475 -1.9412502
-1.6186308 6.7366109 -1.7473031
-2.263994 5.4957852 -1.9088356
-3.1420896 5.8449478 -1.8591337
-3.5984511 5.9289336 -1.8665379
-2.5847695 4.785933 -1.9797852
-3.2786465 5.2100601 -1.9477409
-1.5421369 6.1706648 -1.7752985
-2.7030246 6.523581 -1.7838744
-2.7696283 6.5102563 -1.7875847
-2.6028259 5.8275738 -1.83968
-3.0548575 5.267952 -1.9250232
-1.8803861 6.3459988 -1.7740389
-2.6693923 5.9875193 -1.8346819
-1.7151995 6.1585889 -1.7851957
-2.3877161 5.6467605 -1.878172
-1.5471294 5.1952477 -1.9724319
-2.9245086 5.7308774 -1.8558325
-1.5907627 4.7834611 -1.9633297
-3.0184314 5.2078047 -2.0063379
-3.308249 5.6270108 -1.8851459
-2.4362047 6.0428262 -1.8224559
-2.3152902 5.1184182 -1.9914765
-2.39326 4.8803735 -1.9783146
-3.5076845 5.7634597 -1.8929008
-1.887656 4.9970207 -1.9797752
-2.1241331 6.5387473 -1.7888592
-3.0200212 6.0359068 -1.8121597
-3.2217138 5.1223764 -2.0178821
-2.4582939 6.5970521 -1.7780442
-3.1225812 6.0267706 -1.8233716
-1.9872048 6.3395243 -1.7813267
-2.5730646 5.9983249 -1.8259488
-2.6712999 5.3986673 -1.9023052
-2.0494478 5.5693827 -1.8717989
-1.8659196 6.1706028 -1.801497
-3.1222706 6.9457011 -1.7941881
-3.4726508 4.9671726 -2.0212774
-2.1483274 6.6800961 -1.7716839
-2.0996993 5.7277393 -1.8680626
-2.3217945 4.8168678 -1.9820166
-1.8812931 5.5864863 -1.8917049
-2.0400958 5.2141547 -1.9842963
-1.8898838 5.2387195 -1.9728084
-3.3730671 4.7839384 -2.0100081
-1.8274552 5.9916077 -1.8025894
-1.5413752 5.6407371 -1.8752328
-3.4458427 6.5706134 -1.8131633
-3.0495634 5.2749534 -1.9608868
-2.1297121 5.2566571 -1.9423596
-3.3059075 5.0774279 -2.0205982
-3.465193 5.192843 -1.9775983
-2.326895 6.2658939 -1.7930993
-1.9806271 6.6955333 -1.7621439
-1.9266782 5.2372351 -1.9771163
-3.7355659 6.4662032 -1.8259888
-2.0469894 6.687644 -1.7653238
-3.6406136 5.1688919 -2.0048599
-2.2940381 5.5018811 -1.8808856
-1.9066046 5.980916 -1.806777
-2.2784846 5.1226525 -1.9871686
-3.5103772 6.5429444 -1.8147023
-1.7928097 6.714323 -1.7531334
-1.6622373 6.6056781 -1.770879
-3.6715848 6.4960842 -1.8244498
-2.286664 4.8213267 -1.9775333
-1.699101 5.7898955 -1.8459485
-2.8342044 5.3381987 -1.943756
-2.7165127 6.1091809 -1.7936598
-3.2557921 5.8131051 -1.8672843
-1.8601822 4.8293567 -1.9694875
-3.2970357 5.2029214 -1.9490389
-2.6052153 5.589572 -1.8901769
-1.8148484 5.1098628 -1.9731672
-3.3712876 5.4561543 -1.9192934
-2.9787753 5.1959233 -1.995473
-1.7273864 6.3774085 -1.7706753
-2.7695045 4.883307 -1.9900405
-1.8069912 5.9918308 -1.8007946
-3.5753076 5.1972861 -2.0359983
-2.1787364 5.2588534 -1.9500312
-2.8699152 6.3299551 -1.8101083
-1.7981783 5.113781 -1.9724319
-2.9961734 5.8802986 -1.8480721
-1.5362362 6.3807244 -1.7577815
-2.157366 5.7847939 -1.8415016
-3.5373108 5.2118149 -2.0327044
-1.5639563 5.3483744 -1.9053971
-3.1575673 6.3678107 -1.7965947
-2.1966178 5.9416699 -1.824724
-2.4957936 4.8371143 -1.9812558
-2.7682402 5.3344369 -1.931896
-2.9844773 5.0289907 -2.007916
-1.7200042 5.0512977 -1.9775333
-2.7986341 6.0867934 -1.7975841
-3.7568493 6.7351522 -1.8189836
-2.4601674 5.4543457 -1.9226719
-1.9151896 5.6089721 -1.8692027
-2.0039203 5.9610982 -1.8103664
-2.8152027 5.1213913 -2.006521
-3.4845819 5.7662816 -1.8899896
-2.0717046 5.5408893 -1.8989524
-2.5201616 5.2626562 -1.9397894
-1.7506156 6.6047087 -1.7768724
-2.1380136 5.1747746 -1.9842963
-2.6385002 5.2527971 -1.9554082
-2.5030024 5.2124677 -1.9835066
-2.3586671 5.7385993 -1.85138
-3.0915415 6.0362811 -1.8216898
-2.469573 5.6176624 -1.8800675
-2.6411383 5.183856 -1.9967571
-2.1791167 5.5423045 -1.8789388
-3.656693 6.7790456 -1.8165041
-2.9650369 7.0037441 -1.7917086
-2.4565356 5.2781339 -1.9350361
-2.3088446 6.904356 -1.7762256
-3.247854 5.2337637 -1.9490389
-3.6374922 5.5505266 -1.9192452
-3.644702 5.3742542 -1.945224
-2.2352359 5.9313288 -1.8259206
-3.2042413 5.2533627 -1.9819708
-3.2579086 5.1083589 -2.0205982
-2.9375961 6.7456102 -1.7967465
-3.6089664 5.1762733 -2.0366573
-1.543413 6.6146879 -1.7654305
-1.8901949 5.5934873 -1.8614136
-1.9830525 4.7862163 -1.9717823
-3.3887897 6.5871787 -1.8100853
-2.8119979 6.4962711 -1.7886446
-2.0368545 5.2631927 -1.9318984
-2.7257154 5.1483741 -1.9995469
-2.0662673 5.5611472 -1.8711497
-1.9116869 6.6934829 -1.7563136
-3.1563282 5.6699667 -1.8731811
-3.0631096 5.4570608 -1.9205049
-3.7011566 5.9084554 -1.8771895
-3.4034705 5.4316487 -1.9180589
-3.1019986 6.9590211 -1.7951801
-3.1791286 6.9262571 -1.7956759
-3.4405079 5.9599724 -1.850841
-1.6542306 5.6342678 -1.8837982
-1.7346424 5.042366 -1.9760389
-2.3485858 5.6528749 -1.8750128
-1.81266 5.6150851 -1.8936814
-3.1605418 6.9432745 -1.7976595
-2.9754584 5.3218732 -1.9276193
-2.4179263 6.0522227 -1.8230381
-3.2694762 5.2486429 -1.9925128
-3.5278289 6.2524452 -1.8162055
-1.8872406 5.9850531 -1.8061788
-1.935347 6.6967177 -1.7589636
-2.4201636 5.2866368 -1.93232
-1.5406172 6.0204883 -1.7870352
-2.5149264 6.0187845 -1.8247845
-3.3365331 5.6346955 -1.8917263
-2.5599685 4.9963388 -1.9900405
-2.4561296 5.2409291 -1.9855989
-2.6349592 5.9609361 -1.8230381
-2.4385839 5.6187749 -1.8762764
-1.896505 6.5683117 -1.777962
-3.3533559 6.332458 -1.8124955
-2.8082843 5.2367101 -1.9784962
-3.0172734 5.8759542 -1.8498187
-2.2984276 5.1239662 -1.9907584
-2.4146028 5.237494 -1.9779272
-1.6881541 5.4792113 -1.9031202
-2.8078146 5.3286586 -1.9365083
-2.7001491 5.3671103 -1.9312373
-2.0956914 5.5520492 -1.9055411
-3.1366682 5.6765051 -1.8719844
-2.5621128 6.4130383 -1.7975767
-3.1763184 5.5017323 -1.8995368
-2.1945312 5.2502503 -1.9493338
-2.99544 5.2058764 -2.0015845
-1.9976739 6.5684285 -1.7861347
-1.6520436 6.1560211 -1.7793738
-3.0220942 4.9845681 -2.0009418
-3.3584454 5.2438154 -2.0076671
-2.6570477 6.8215623 -1.7869992
-3.4518898 5.2258334 -2.0201855
-3.6148643 5.5539093 -1.916254
-3.3641641 5.3643508 -1.9451467
-2.1940668 5.5220428 -1.9081765
-3.0255141 5.2713733 -1.9556156
-3.7423618 6.1716003 -1.8268058
-1.600086 6.7529311 -1.7504833
-2.0524175 6.964725 -1.7710955
-2.0263112 5.7500877 -1.866799
-1.5803607 4.9144378 -1.964132
-2.344285 5.4765453 -1.8795878
-3.3651171 6.3065495 -1.8077253
-3.1472504 6.9429278 -1.7961718
-2.4902556 5.616828 -1.8825947
-3.6818595 5.1581984 -2.0100524
-2.4511271 5.0547752 -1.9914765
-2.9135964 5.9237809 -1.8486542
-2.6289971 6.5475302 -1.7822844
-2.610338 5.4032073 -1.8945166
-1.6307439 5.0749717 -1.975292
-2.2217991 5.3567286 -1.9268872
-3.074681 6.9563079 -1.7917086
-1.9245017 5.5697503 -1.8910459
-3.2582266 5.2139344 -1.9451448
-2.98174 6.981904 -1.7882372
-1.7677145 5.9975672 -1.7989998
-3.7429459 5.336534 -1.9532504
-3.7164381 5.6951909 -1.9092019
-2.4133961 5.7178631 -1.8519973
-1.5867151 5.8098965 -1.8421574
-2.2005568 4.9722743 -1.9790499
-1.7386618 5.6265788 -1.8897282
-1.6787065 6.0072355 -1.794214
-3.5237627 5.749156 -1.8917363
-3.6034131 5.3860106 -1.9409024
-2.9487865 6.0347223 -1.8026295
-2.7034533 6.813704 -1.7895644
-1.6382328 5.8717346 -1.8161885
-3.1401703 5.2589469 -1.9720877
-2.6200118 4.9777765 -1.9943485
-2.3003168 5.9063935 -1.8259206
-2.5028024 5.2688518 -1.9391104
-3.4720497 5.4265018 -1.9285545
-2.8552513 6.0837774 -1.8037508
-2.5390935 6.413908 -1.7953972
-2.4662359 5.2195992 -1.9800195
-3.2797177 5.8128247 -1.8707774
-1.8142279 7.0005822 -1.7634001
-2.4096329 6.4698195 -1.7970318
-2.9332702 5.3016829 -1.9490269
-1.7796202 6.1641846 -1.7921821
-2.3763597 6.8895907 -1.7782776
-2.0423388 5.3975277 -1.9167014
-1.851045 6.7205081 -1.7589636
-3.5268354 5.1786637 -1.9853874
-3.2759769 5.6326175 -1.8815563
-1.9463811 6.9670033 -1.7639132
-2.203795 4.8618011 -1.9782805
-1.7479124 6.3738046 -1.7712358
-3.4932263 5.4219475 -1.9310241
-2.06336 5.4016109 -1.9207758
-3.538321 5.569098 -1.9072804
-3.4497004 5.3504357 -1.9565197
-2.452662 5.6271372 -1.8806993
-3.0109298 5.5528774 -1.8878064
-2.3016274 4.9263039 -1.9790499
-3.5512402 6.2480526 -1.8183256
-3.4066951 5.2283826 -2.012279
-3.4428124 6.838109 -1.8046023
-2.1391828 5.791543 -1.8415016
-1.9885366 6.122129 -1.7985859
-3.0681872 6.3878293 -1.7907648
-3.1815665 5.8518815 -1.8667021
-2.1683652 5.3704672 -1.9241711
-3.6554985 4.8459802 -2.0246725
-1.9282786 5.9839892 -1.8097682
-2.2249668 6.0911713 -1.8131407
-2.4051006 6.6125264 -1.7769845
-2.5003357 5.0347848 -1.9929124
-2.395545 5.4706678 -1.9187187
-2.2221749 4.8615885 -1.9812694
-2.3337886 5.4995265 -1.8854297
-2.972368 5.5649896 -1.8853369
-2.3679247 5.4538713 -1.9094945
-1.8627765 5.002388 -1.9782805
-2.9906919 5.4884405 -1.9179776
-2.1983855 6.5222821 -1.7910385
-2.8492925 5.2337956 -1.9846078
-1.9591323 4.8140178 -1.9786676
-3.5207915 5.3312335 -1.9641017
-1.8605613 5.7659736 -1.8541623
-3.3401015 5.9794607 -1.8413109
-3.3208055 5.0654473 -2.0199192
-3.1905625 6.2135115 -1.8199157
-2.3677869 5.6489739 -1.8762764
-3.6543241 5.1374011 -2.0346808
-3.1733403 5.2417183 -1.9380049
-2.1131883 5.2633214 -1.9423596
-2.4316056 6.5884385 -1.7732742
-2.5798185 6.844945 -1.78546
-2.3436511 5.9078155 -1.8313048
-3.4274583 5.9807658 -1.8542048
-2.3913822 5.0729961 -1.9878864
-3.5994561 5.5684528 -1.9174504
-2.1000044 6.5344105 -1.7855899
-3.5336912 4.921618 -2.0205982
-1.944437 5.2346497 -1.9785523
-2.3970885 5.8801532 -1.82951
-2.0070033 5.7528362 -1.8655351
-2.2844698 5.9207239 -1.8283134
-1.5488753 5.6464629 -1.8445377
-2.7590432 5.7827587 -1.8474569
-2.8208218 5.5223064 -1.9015499
-3.0933859 6.6969028 -1.8018768
-1.8976388 5.8331251 -1.8285363
-3.1327307 6.2450223 -1.8204603
-1.7864869 5.0380125 -1.9812694
-1.875862 6.5742364 -1.777962
-3.5094805 5.1881571 -1.9847382
-2.682591 5.5718136 -1.8958634
-2.1899941 6.5311937 -1.792673
-3.3084202 6.1777749 -1.8264538
-3.2251108 5.402729 -1.9318782
-2.0107796 6.1249294 -1.801497
-3.1759777 5.6633596 -1.8743777
-3.3631473 5.7893109 -1.8771815
-2.606297 6.5503726 -1.7806944
-1.8071221 5.330596 -1.9263195
-2.0371699 6.550241 -1.7845002
-2.7093496 6.3710599 -1.8024802
-3.749419 5.2548003 -1.9862159
-1.9585149 6.6980152 -1.7610836
-3.3254352 5.3772936 -1.9419876
-1.5641264 5.5041647 -1.8990456
-1.5772853 5.6327624 -1.8758918
-2.8848729 5.2207174 -1.9866451
-2.9066627 5.5183926 -1.9135548
-3.3830152 5.3569727 -1.9464103
-3.1956198 5.6566839 -1.8755741
-2.579108 4.9948907 -1.9929124
-1.6621189 5.163517 -1.9739023
-1.6022809 6.3901935 -1.7650692
-1.9658366 5.9717565 -1.8097682
-1.8937356 5.3103943 -1.9298061
-1.617726 5.8695254 -1.8137187
-1.9678544 5.0569034 -1.9746377
-2.2161684 4.9653354 -1.9790499
-2.849288 5.9337621 -1.8428324
-3.6851435 6.0983005 -1.8596897
-2.8895853 4.8262839 -1.9943485
-1.6894228 5.0655198 -1.979028
-2.1873827 5.3688426 -1.9262081
-2.9677196 5.0367212 -2.0072184
-2.3672843 5.2426014 -1.9723481
-1.9453629 4.8235841 -1.9801978
-2.4492724 5.7025871 -1.8519973
-2.4285774 6.4586205 -1.7959422
-2.5099759 6.1865416 -1.790857
-3.1806726 5.4246097 -1.9306144
-2.3875895 5.2436857 -1.9758352
-1.7335488 5.8562078 -1.8198926
-3.6859818 5.3621926 -1.9495459
-1.760965 5.2401443 -1.9570119
-2.5986826 5.2010789 -1.9953624
-2.3317456 4.9100609 -1.9783146
-2.7444222 5.9535022 -1.8346819
-2.4848557 6.1801229 -1.7863721
-1.701952 5.4631195 -1.8990456
-3.4745536 5.9757466 -1.8598107
-2.4040504 5.2361593 -1.9758352
-3.5701127 5.171927 -1.991878
-2.1827331 6.0942392 -1.8096476
-2.9917278 6.026413 -1.8059932
-2.2375286 5.7767076 -1.8482929
-2.1707416 4.9894195 -1.9805205
-1.6751 5.6399193 -1.8877515
-2.679023 5.8013492 -1.842073
-2.3301013 5.6584673 -1.8743809
-2.6334982 6.8244729 -1.78546
-3.4364853 5.2382345 -2.0208445
-1.5608486 5.8790016 -1.8118666
-2.1086237 5.5674825 -1.8782898
-3.1186829 4.9491005 -2.0086133
-2.0477331 5.0270972 -1.9753733
-3.3041852 6.19313 -1.8297229
-3.0497487 6.4009256 -1.7918248
-1.7467561 6.7105093 -1.7488934
-3.4065478 5.1930833 -1.9665643
-1.9876949 5.7555208 -1.8642715
-2.7793188 5.9309521 -1.8329352
-2.3879516 6.4737515 -1.7959422
-3.7217352 5.9000545 -1.8783106
-1.9268144 4.821074 -1.9763726
-2.8836467 5.0745468 -2.0037315
-3.0320783 6.4157138 -1.7934146
-1.9468446 5.4267073 -1.9146644
-2.4002831 5.6269917 -1.8737491
-1.9028646 5.0777435 -1.9731672
-2.6804891 5.1805077 -2.0023365
-1.6761549 5.8649793 -1.8174231
-1.6354841 5.6358051 -1.8824805
-3.2166336 5.4914918 -1.9032414
-1.8436996 4.8317175 -1.9679574
-2.3165009 5.5068307 -1.8854297
-1.5306894 5.8770976 -1.8087796
-1.9271771 5.5868568 -1.8633608
-1.5255328 6.186615 -1.7787915
-2.5979233 6.1522117 -1.7914175
-3.389492 5.6029987 -1.8917263
-1.6795251 6.1803107 -1.7886889
-1.7517089 5.040391 -1.9775333
-2.3382263 6.6221538 -1.7732742
-1.714449 5.6103129 -1.8818216
-1.934114 5.291831 -1.9284114
-2.6885653 6.3777699 -1.8019354
-2.1179688 6.9450717 -1.7710955
-2.9517698 6.4276009 -1.7870547
-1.6389482 6.0102935 -1.7918212
-2.6786902 5.9581995 -1.8276955
-1.6214159 6.381403 -1.763948
-2.865891 7.0135098 -1.78427
-2.1131241 5.7086387 -1.8636397
-3.195024 5.2218766 -1.9360574
-2.8143651 5.6039987 -1.8729888
-3.3149626 6.8773417 -1.7991472
-2.424634 5.635139 -1.8794357
-3.6962316 6.0735731 -1.8553309
-2.0306201 6.1203957 -1.8020791
-2.7703092 5.3634467 -1.9068491
-1.9863842 4.9725885 -1.9850054
-1.7885098 5.7907143 -1.8547941
-2.3261614 5.7621107 -1.8544669
-2.2174997 5.258904 -1.9556104
-1.8479358 5.9913144 -1.804384
-2.4889448 6.8641171 -1.7818688
-1.7008109 5.6401238 -1.8568704
-1.8332436 5.0192127 -1.9805222
-3.5002384 5.5863571 -1.9054859
-1.5641879 6.6098065 -1.7654305
-1.9926721 4.7882247 -1.9740776
-2.0742157 5.2046947 -1.9857323
-2.891571 7.0134411 -1.7867495
-1.5518419 5.4939585 -1.8942922
-1.5891969 4.915472 -1.9656621
-3.1376331 5.1853023 -2.0212774
-1.8721887 5.0930967 -1.9746377
-3.286731 5.6307688 -1.8827529
-3.1775553 6.3578596 -1.7965947
-2.6651435 5.6344242 -1.860641
-3.3491244 5.4586315 -1.9162066
-1.8514017 5.5944934 -1.8575193
-2.6992619 5.5616465 -1.8952316
-3.0665188 6.0339603 -1.8177656
-3.3420541 5.7948871 -1.8754349
-2.1687121 6.6714787 -1.771154
-3.1599729 5.5133305 -1.9001544
-2.5351224 5.6795297 -1.856319
-3.435519 6.8504477 -1.8065859
-2.6145613 5.9907932 -1.8288598
-1.5394861 5.2569385 -1.9376256
-2.9828081 5.2960572 -1.9211289
-1.7909236 5.8468771 -1.8223624
-3.48715 4.9547024 -2.0205982
-1.6424845 6.7427454 -1.7504833
-3.4884624 6.1377592 -1.8411647
-2.7351954 5.7793002 -1.8432693
-2.9210484 5.0660958 -2.007916
-2.5224075 5.5941381 -1.8800675
-1.9149456 6.5549393 -1.7757826
-3.4942753 5.9664612 -1.8603712
-2.1068771 5.1915588 -1.9857323
-3.4310124 6.5674667 -1.8105981
-1.5803533 5.4956131 -1.8976878
-1.5990295 5.6423321 -1.8811628
-2.1057351 5.0111489 -1.9783146
-2.826817 4.8589959 -1.9929124
-2.4713686 5.4619374 -1.8925692
-1.675517 5.353776 -1.9193453
-1.9617682 4.9564228 -1.975292
-2.9371135 6.4491472 -1.7907648
-2.2388723 5.6890621 -1.8724855
-3.1119411 6.6819034 -1.8003378
-2.5806749 5.8269811 -1.8366888
-3.202683 6.3581982 -1.7997749
-1.9574347 5.8293877 -1.8334755
-3.5048862 4.946785 -2.0219564
-1.7533262 6.145854 -1.7846136
-3.163439 5.2604132 -1.9766997
-3.7229531 6.1833277 -1.8268058
-1.7214322 7.0040727 -1.7582698
-1.9952724 5.8205681 -1.8347102
-3.1113632 6.0282488 -1.8222505
-2.3323987 6.9025564 -1.7777648
-2.4799261 6.4411407 -1.796487
-2.7054813 5.6278334 -1.8643453
-2.3740089 6.242034 -1.7914175
-1.9056143 4.8116102 -1.9694875
-2.9954903 5.0115228 -2.0044289
-2.6582584 5.1772051 -1.9974545
-1.855038 5.2452197 -1.9706542
-1.700128 6.0111256 -1.7972052
-3.3924601 5.4519801 -1.9217632
-2.6235616 5.5830817 -1.8908087
-2.049201 6.3278284 -1.7835691
-2.7639244 5.9465828 -1.835264
-2.0181086 5.9724264 -1.8151522
-2.9509895 4.7911777 -1.9950664
-1.5353839 5.3761439 -1.9123713
-2.0267067 5.407434 -1.9180595
-2.6096754 6.4146104 -1.8030252
-3.282016 5.4837289 -1.9118848
-3.3319571 5.4691277 -1.9162066
-3.5799184 4.8880963 -2.0205982
-3.1765766 4.9032102 -2.0058236
-2.4290884 5.7050114 -1.8501451
-2.7619028 6.1077628 -1.7987052
-3.7331512 5.1609426 -2.0210865
-1.5463345 5.8050656 -1.8371025
-1.8477013 5.0099535 -1.979028
-2.3428669 6.0570612 -1.8160517
-3.2264011 5.2359099 -1.9457937
-2.6973078 6.1176844 -1.7936598
-2.6486216 5.3906217 -1.9305786
-2.8074946 5.3526206 -1.9094454
-3.0749235 5.6906734 -1.8666005
-3.0097306 5.4823527 -1.9192413
-2.1317759 5.3770008 -1.9214548
-2.713371 4.9275079 -1.9943485
-2.49072 4.8460035 -1.9834619
-1.6075331 6.6073208 -1.7676098
-3.3095133 5.3893347 -1.9426192
-2.9706447 6.287569 -1.8111979
-2.172678 5.1663918 -1.9864502
-3.3841946 5.0233188 -2.0199192
-1.7789479 6.3691983 -1.7723571
-1.527689 4.7943163 -1.9594256
-2.8632648 5.5196667 -1.9072365
-2.9457726 5.3080926 -1.9185323
-3.67889 6.7692304 -1.817
-3.124717 5.4460979 -1.9274553
-1.8168716 6.7198386 -1.7563136
-3.2919314 5.2479682 -1.996466
-3.7468131 5.4888825 -1.9222364
-2.2457993 4.9479189 -1.9775791
-3.6077919 6.0997062 -1.8487927
-2.2878942 4.8433213 -1.9857526
-1.5968688 6.1824212 -1.7828668
-3.2729251 6.1814141 -1.8226398
-2.5294013 6.1786246 -1.790857
-1.5858827 5.642076 -1.8464848
-3.0463521 5.886795 -1.8568048
-2.362201 5.9004226 -1.8313048
-2.9047322 4.817183 -1.9943485
-1.9230233 5.5942283 -1.8989524
-2.2648664 6.5157952 -1.7953972
-3.718328 5.1076274 -2.0392928
-3.7625043 6.053144 -1.8602345
-3.0792582 5.5327034 -1.8927455
-2.3885672 5.4842114 -1.8880259
-2.0574367 5.9650497 -1.816947
-2.034348 5.8150873 -1.8371798
-3.4776857 6.2782693 -1.8156755
-2.5520525 4.7971396 -1.9775791
-3.5551412 6.5275369 -1.8167546
-2.4821727 5.4404054 -1.8873767
-1.7535526 5.6120644 -1.8864337
-1.9753466 6.569149 -1.7845002
-3.5628653 5.7317653 -1.8934827
-2.8009081 5.5260515 -1.8996543
-1.7751023 5.6191497 -1.8910459
-2.8693697 5.2314 -1.9873241
-1.919565 5.8379626 -1.8322407
-2.3065414 6.2713695 -1.7925388
-1.8391026 5.839879 -1.824832
-2.2973392 5.7429404 -1.845206
-2.4888999 5.6957855 -1.8550844
-3.1247697 5.273016 -1.9386538
-1.5650518 5.8020124 -1.8377345
-2.5766892 4.8071771 -1.9856679
-2.1504254 5.2603698 -1.9465441
-1.6314216 4.8879848 -1.960307
-3.0018375 6.7193851 -1.7972596
-3.6528239 5.5358772 -1.9180489
-2.1735106 5.7062311 -1.869958
-2.4005642 6.8893824 -1.7803297
-3.6992121 6.7559381 -1.8165041
-3.2403209 5.8283124 -1.869031
-2.3143716 6.0966668 -1.8242023
-2.1308954 4.9043074 -1.9820166
-3.4191666 6.1502223 -1.8346264
-2.8760431 5.3157744 -1.943756
-3.1517222 4.9325752 -2.0100081
-3.6789825 4.8139782 -2.0205982
-2.5466201 6.1653161 -1.789175
-2.7475231 5.6243706 -1.8692844
-2.8973157 6.4692373 -1.7912947
-1.9830592 5.0489621 -1.9739023
-2.9187582 7.0168614 -1.7902209
-2.7811978 5.135674 -2.0051262
-2.4921174 5.8488107 -1.831903
-2.6341488 5.9842978 -1.8294419
-2.7248206 5.6227236 -1.8655801
-3.0324447 6.9790487 -1.7927004
-2.7128806 5.3969564 -1.9081472
-1.5334339 4.9273467 -1.9633671
-2.8121393 6.0657568 -1.7936598
-2.1044595 4.927814 -1.9864998
-1.9641497 5.745554 -1.858585
-1.5803807 6.3877344 -1.7628268
-3.1604383 5.8350463 -1.8591337
-2.8368239 6.0690889 -1.7975841
-2.3779173 4.887867 -1.9783146
-1.9217157 4.9919724 -1.9827635
-3.2443142 6.3413897 -1.8008353
-1.8317353 4.8461442 -1.9717823
-3.1675053 6.21666 -1.8177361
-2.9716415 5.4944644 -1.9167141
-2.3793097 5.8894281 -1.8301082
-2.8484244 6.3354349 -1.8090185
-1.8236154 5.8546968 -1.8279188
-3.3113906 5.7838187 -1.8678664
-3.302274 6.622334 -1.808033
-3.6532686 5.7154908 -1.903962
-2.2514532 6.103869 -1.8195449
-3.4570301 4.9780564 -2.0212774
-2.2030826 5.7030172 -1.8724855
-2.0458388 4.940393 -1.9820166
-3.341599 6.8773665 -1.8021227
-3.3433101 5.368434 -1.9426192
-2.0565717 6.5401411 -1.7834105
-3.5600214 5.2100563 -2.0366573
-3.63168 5.1742105 -2.0406108
-3.4673789 6.56146 -1.8136764
-3.5480258 4.9089737 -2.0199192
-2.9071946 6.3065639 -1.8084737
-3.0494547 4.9590759 -1.9981519
-1.8625712 6.359252 -1.7762812
-2.8446083 5.0986791 -2.0044289
-3.1964779 5.4966474 -1.9013891
-1.5347998 5.1048069 -1.975292
-2.8636115 5.7444935 -1.8510466
-1.6991582 5.246778 -1.9519858
-1.7727079 4.8503437 -1.9648972
-2.2492762 5.1436949 -1.9900405
-2.2900794 6.2876163 -1.7953416
-1.8399488 6.3558416 -1.7734782
-2.4097483 6.2180305 -1.7886145
-1.811749 6.5842094 -1.7757826
-1.6164289 5.3405852 -1.9081868
-2.682518 6.5320396 -1.7838744
-2.2312562 5.5215201 -1.8789388
-3.269212 6.8927746 -1.7976595
-2.1954288 4.8838973 -1.9850054
-3.4404931 5.6076822 -1.901298
-1.8484887 5.6053801 -1.8943404
-3.0994372 5.5279675 -1.8945975
-2.4862385 5.2766876 -1.9391104
-2.3352959 5.3205605 -1.9309616
-1.5711803 7.007607 -1.7500615
-2.0545299 5.8140416 -1.8390321
-3.2469094 5.1264944 -2.0239935
-1.7383842 6.0021605 -1.7978034
-1.8875402 5.085443 -1.9739023
-3.5552685 5.3105874 -1.9647337
-2.3778691 4.8163447 -1.99173
-3.4865868 6.8180704 -1.8050982
-2.4464207 6.8814392 -1.7823818
-3.140619 6.0152245 -1.8228111
-2.6313081 5.654501 -1.8618758
-1.665297 6.3859663 -1.7684329
-3.2893975 5.7875547 -1.8655379
-1.8844341 5.0121126 -1.9850054
-1.6957051 4.8758411 -1.964132
-2.15219 5.3789949 -1.92485
-2.2846828 6.5068345 -1.7948524
-1.6641135 6.7394252 -1.7510133
-1.9857762 5.9691777 -1.8109646
-2.6650259 4.9495831 -1.9929124
-2.6531365 5.6548004 -1.8649628
-1.7746166 6.7311215 -1.7563136
-1.663296 5.2484665 -1.9483957
-2.7476747 6.5153666 -1.7865247
-3.3895338 6.1424384 -1.8286332
-2.3186014 5.481174 -1.911471
-2.9855139 5.9050207 -1.8533119
-2.0005443 5.4151626 -1.9173805
-1.9722586 6.1374416 -1.801497
-2.0857387 5.0074186 -1.9739023
-2.0742893 6.9582419 -1.7710955
-1.7892349 6.0011401 -1.8019912
-2.8721166 5.9333768 -1.8457434
-1.8126651 4.8414726 -1.9671923
-1.5665329 6.7528768 -1.7483634
-1.9757401 5.8232088 -1.8334755
-3.0576992 5.8636508 -1.8521473
-2.1111658 6.1052303 -1.8055723
-2.3641512 4.8986707 -1.9797852
-3.5876296 6.1093554 -1.8482478
-1.9587425 5.7594256 -1.8623761
-3.725071 6.75278 -1.8189836
-2.8563349 4.8395352 -1.9921944
-2.2984428 6.6421885 -1.774864
-2.6882484 5.3902483 -1.9023052
-3.136209 4.9424529 -2.0100081
-2.7487028 5.5522041 -1.8996543
-3.5197968 5.5785685 -1.9066823
-3.574662 6.2435718 -1.8204457
-2.7260978 4.9140759 -1.9921944
-3.1948233 5.409677 -1.9287189
-1.6449331 5.0645385 -1.9730501
-3.2091756 6.2017522 -1.8193707
-2.8814397 5.9054446 -1.8393393
-2.0203106 5.2695651 -1.9318984
-2.724123 6.8033848 -1.7890513
-3.0373273 5.7065048 -1.8654041
-3.6518621 6.1964955 -1.8199157
-3.6847944 5.9028358 -1.8732651
-2.1345563 5.5493641 -1.9094945
-3.0455306 6.2666192 -1.8150119
-1.8399464 5.4499798 -1.9099108
-2.6445291 6.5267081 -1.7785742
-2.174731 4.8789344 -1.9797752
-2.3744774 5.7258978 -1.8495277
-2.3174117 6.6294665 -1.7732742
-3.6094332 4.8640003 -2.0199192
-2.8253446 6.3373346 -1.8068392
-2.1850922 6.9303265 -1.7726345
-2.3786252 5.0872331 -1.9907584
-2.6224387 6.3886061 -1.7975767
-2.4344189 5.0607715 -1.9907584
-3.5928602 5.1699781 -1.9957725
-3.6399233 4.8412251 -2.0199192
-1.5940576 7.0064039 -1.7510874
-1.7821028 5.1194048 -1.9724319
-1.7200381 6.0094285 -1.7984016
-2.6950316 5.1687303 -2.0009418
-2.3980055 4.7814593 -1.9827635
-2.0702419 6.6885591 -1.7674439
-1.9982331 5.0409756 -1.9731672
-1.715632 5.2414145 -1.9519858
-2.1379025 4.9995327 -1.9790499
-1.9813038 5.2327847 -1.9828604
-1.6176463 5.0888958 -1.979028
-2.1812301 4.9706292 -1.9753733
-1.5271845 5.1875744 -1.9672844
-3.4930096 5.2166286 -2.0254564
-2.6756127 6.8059945 -1.7849472
-3.0097768 5.3047156 -1.9282688
-3.5980871 6.2390079 -1.8225658
-2.7697608 6.793283 -1.7911034
-2.2308879 6.6489115 -1.770624
-1.8694046 6.147552 -1.7950928
-2.3432593 6.4777851 -1.792673
-3.7233856 6.0750275 -1.8596897
-2.2631226 4.8303728 -1.9767861
-2.6166496 5.3894248 -1.9253074
-3.25631 6.6342912 -1.8054678
-2.6731777 5.2394595 -1.9567662
-2.7697577 5.781867 -1.8486533
-3.1995399 5.140687 -2.0192401
-3.4616349 6.295938 -1.8177955
-3.3194518 5.9865584 -1.8401897
-3.7038972 5.3521466 -1.9501634
-3.0109315 6.2705112 -1.8117427
-2.6219862 5.2610598 -1.9554082
-1.9822145 5.4178934 -1.9160224
-3.4539561 5.435782 -1.927937
-2.2517164 5.3340144 -1.9234921
-3.0278523 5.474534 -1.9198732
-1.7684356 6.3701324 -1.7717963
-3.4129953 5.6021256 -1.8953159
-2.3137333 5.6692786 -1.8756446
-3.1492095 6.6793838 -1.8039289
-2.8756869 5.3352823 -1.9496859
-2.2615831 5.694366 -1.8769082
-3.6073756 6.5253339 -1.8229108
-3.6179292 5.2956986 -1.9723157
-1.6585679 5.7858458 -1.8408936
-3.2873619 6.3517704 -1.8087853
-2.2435021 6.2819662 -1.789175
-2.7339597 5.375699 -1.904902
-2.1680827 6.3205709 -1.7925388
-1.6593683 5.6307645 -1.8497303
-3.2962625 5.468514 -1.9100325
-1.8916812 6.7031717 -1.7573736
-3.747473 5.6839881 -1.9115307
-3.4058971 5.3559508 -1.9502014
-1.6994179 7.0094461 -1.7582698
-1.5854602 5.3596344 -1.9116739
-1.6051981 4.9122138 -1.9664272
-2.032619 5.035233 -1.9761086
-1.7078326 6.3846602 -1.7712358
-2.5813539 5.2622633 -1.9492964
-3.7325106 5.0597763 -2.0287509
-3.2614958 4.8652024 -2.0114028
-1.8050674 5.4596491 -1.9092315
-3.6896098 5.2576056 -1.975475
-2.6141732 5.1912117 -1.994665
-2.3698125 5.4882207 -1.8867277
-2.8257937 5.7589397 -1.8498499
-2.1522627 5.7041402 -1.866799
-3.2410371 4.8676004 -2.007916
-1.6945735 5.859684 -1.8174231
-2.1410203 4.8857198 -1.9767861
-1.8216175 6.1638775 -1.7956752
-3.1906762 5.8251128 -1.8608804
-1.9273692 6.3579712 -1.7813267
-2.9117558 6.744173 -1.7936685
-2.5569377 6.8493981 -1.7844338
-2.989835 5.5556235 -1.8853369
-1.8701035 6.7072215 -1.7568436
-2.2291939 6.9182982 -1.7731476
-2.3237586 5.2333393 -1.9625846
-1.9020556 6.9772315 -1.7634001
-1.6448942 5.6468325 -1.8536247
-2.2456799 5.5320058 -1.8841313
-1.8994335 5.5823393 -1.8923637
-2.9738622 5.2963533 -1.9542981
-2.8905921 6.3226552 -1.8106531
-3.6492565 6.5042219 -1.8234239
-1.5491588 7.0125079 -1.7500615
-2.146383 6.3218913 -1.790857
-3.2916818 6.8842196 -1.7981554
-3.26473 5.0838928 -2.0144868
-2.1418369 6.1006222 -1.8073189
-2.4704568 6.0185628 -1.8195449
-2.8716073 6.7676654 -1.7952075
-1.5813584 6.1627049 -1.7758806
-2.1389303 5.7233353 -1.8712219
-2.4515381 6.0262947 -1.8195449
-1.9535869 6.5716381 -1.7834105
-2.9290547 4.789309 -1.9900405
-3.0235908 5.290318 -1.9263214
-2.0237608 6.6866517 -1.7632039
-1.6263578 5.2463517 -1.9433699
-3.3590906 4.7960505 -2.0107055
-1.8580266 5.8358817 -1.8254492
-3.7638752 5.8846593 -1.8811136
-2.3418281 4.8195376 -1.9864998
-1.7098083 4.8669963 -1.962602
-1.7654144 5.1232176 -1.9716966
-1.9057548 6.3584704 -1.7796448
-2.22439 6.2907948 -1.7897357
-3.2814541 6.6326747 -1.808033
-3.5612056 4.8947692 -2.0185611
-1.6858324 6.3825617 -1.7689936
-2.4286966 5.2247729 -1.9758352
-3.5619335 5.5676231 -1.9108698
-2.2631426 5.1314898 -1.9878864
-3.4114375 5.9744487 -1.8502805
-3.3349056 5.2431579 -2.0030546
-3.686162 5.1308904 -2.0392928
-2.7995856 5.9256463 -1.8340997
-1.897926 5.7577786 -1.855426
-1.8791026 6.9794445 -1.7623739
-3.4312403 5.1949477 -1.9717568
-2.0135474 5.8142715 -1.8347102
-3.7090745 5.5075536 -1.9204416
-2.4003246 6.0633407 -1.8242023
-3.6604078 4.8210335 -2.0185611
-1.7191056 5.4577465 -1.8990456
-2.3123078 4.8358269 -1.9872468
-2.5658128 5.4412284 -1.8997093
-3.0914006 5.1823545 -2.0117702
-2.6584189 5.2511787 -1.9581243
-2.6630504 5.3771868 -1.9286019
-3.097559 5.2649174 -1.9315139
-1.7053298 5.0601869 -1.979028
-3.2642646 4.8362308 -2.0030339
-3.1889155 4.8884826 -2.0037315
-1.8727808 5.2428746 -1.97209
-2.6425354 6.1499004 -1.7959024
-2.4904881 5.430182 -1.9193777
-3.5327632 6.1257005 -1.8444339
-2.3973613 5.4513121 -1.9127887
-3.4308279 6.2864275 -1.8114355
-3.0258305 6.2761555 -1.8150119
-3.2258935 5.9939189 -1.8289776
-1.9226365 5.2860394 -1.9249244
-1.5326355 5.6567721 -1.8464848
-2.6195662 5.8158813 -1.8384833
-1.93729 5.8301001 -1.8316232
-2.8392782 5.3315439 -1.9081472
-3.1549573 6.2402925 -1.8220949
-2.847162 5.0843673 -2.0002444
-1.6906557 5.3431172 -1.9172531
-3.0855598 4.9654045 -2.0072184
-2.5226035 5.2113414 -1.9862963
-1.7499144 6.0067611 -1.8001964
-2.158649 5.533957 -1.9075178
-2.4656744 5.4207559 -1.9127887
-2.2117896 6.6613846 -1.7722139
-3.4632211 5.3529973 -1.9596788
-2.0636594 5.8108068 -1.8390321
-3.2592139 5.6445365 -1.8821545
-2.1547394 5.9427772 -1.8205364
-3.7709739 5.0453277 -2.0327044
-1.6821578 4.8863945 -1.9664272
-1.5262865 7.0135651 -1.7490354
-1.5757525 5.2578759 -1.941934
-2.262866 4.9442291 -1.9790499
-3.5896428 4.8692794 -2.0172031
-2.0656917 4.9441905 -1.9864998
-2.5470898 5.4458418 -1.8984112
-1.5657363 5.0915217 -1.9737976
-1.6366782 6.1759605 -1.7840312
-2.0709033 6.1129446 -1.803826
-2.3893812 6.0635495 -1.8230381
-3.6292245 4.8586473 -2.0226355
-2.7077579 5.9723673 -1.835264
-3.6890597 5.1008677 -2.0313864
-1.6252025 5.8071299 -1.8446846
-1.6006715 6.0186248 -1.7912228
-3.3418803 4.803493 -2.0093107
-3.5198722 5.2213306 -2.0320454
-2.8308616 6.4838643 -1.7875847
-3.231333 6.1967483 -1.8210053
-3.0949111 6.3920693 -1.7950048
-1.7592124 5.4647179 -1.9058363
-2.7312603 5.3449845 -1.9292606
-2.9634645 6.4264646 -1.7881145
-3.2145607 6.6546202 -1.8054678
-1.9260995 6.1260142 -1.7939284
-2.0926037 6.1136394 -1.8061544
-2.1007848 5.7995114 -1.8396494
-3.4610844 5.601728 -1.9030929
-2.0843349 6.3345351 -1.7886145
-2.2883968 6.0860267 -1.8183804
-3.7626057 5.2383585 -1.9843205
-1.6650097 7.0117388 -1.7567308
-1.6133811 5.1789522 -1.9739023
-2.959559 6.7381144 -1.7972596
-1.5834016 5.0918837 -1.9760389
-2.7962801 6.7970448 -1.7946944
-2.2139521 5.9311585 -1.8235276
-3.6645372 5.168201 -2.0094035
-2.9978688 5.3001647 -1.9595691
-2.4332631 5.8632097 -1.8289115
-2.7587671 4.9000955 -1.9936306
-1.5295149 5.8154063 -1.838998
-2.774761 6.0850563 -1.7942206
-1.5745475 6.7391305 -1.7451832
-3.0737355 6.2742696 -1.8204603
-2.2127686 6.321341 -1.7970234
-2.7802496 5.6018953 -1.8674324
-1.5691767 5.6506724 -1.8477832
-1.5634445 5.1903605 -1.9724319
-2.4845047 5.0426154 -1.9929124
-2.1428752 5.552362 -1.8776406
-1.8334739 6.5821891 -1.7768724
-3.3935823 5.0033493 -2.0158448
-3.5287695 5.9394279 -1.8586897
-2.4168837 5.0650339 -1.9893224
-2.9480863 5.2891359 -1.9477092
-2.5378287 4.8067832 -1.9783146
-2.9160664 5.905499 -1.8439968
-3.0882792 6.2542491 -1.8171914
-2.237148 5.3462586 -1.9255291
-2.9807115 6.7287836 -1.7972596
-1.984553 5.275125 -1.9291087
-2.4093976 4.8745008 -1.9790499
-2.7329752 5.2339973 -1.9649148
-2.4823678 6.5983343 -1.7806944
-1.971472 4.8009882 -1.9756075
-2.5763366 5.4195013 -1.8945166
-2.2049608 5.3636818 -1.9268872
-1.7182112 5.1431627 -1.9731672
-2.0091004 4.9394288 -1.9760389
-3.3959081 5.8034325 -1.8859144
-2.4391491 4.8576016 -1.9783146
-1.9033467 4.9910645 -1.9797752
-3.2889128 5.0862126 -2.0199192
-2.0256028 6.9544516 -1.7664783
-1.7907665 7.0006347 -1.7618612
-2.0554025 5.2620139 -1.9339906
-2.8759806 6.0782537 -1.8048718
-1.7997618 5.6152916 -1.8588172
-1.7163824 5.3368778 -1.9179504
-2.7591844 5.3582497 -1.937826
-2.5367589 6.8610196 -1.78546
-1.7078272 6.7344508 -1.7526035
-1.7644432 6.9893727 -1.7572436
-3.2772017 5.9988556 -1.8373867
-1.7780262 5.236351 -1.9577301
-3.6985285 5.7068377 -1.9092019
-3.5572088 5.9448214 -1.8642956
-3.7699165 6.4551921 -1.8280408
-3.5843301 5.2818465 -1.9622062
-1.5911618 5.2493315 -1.9404976
-2.0597248 6.3264303 -1.7841296
-2.0714011 5.0173907 -1.9753733
-2.3435402 5.2943134 -1.9234921
-3.1710129 6.6712003 -1.8044419
-2.095274 5.2664442 -1.9409648
-2.5430682 6.571043 -1.7796345
-3.6959713 5.5255413 -1.9228346
-2.1179893 5.9579988 -1.8211346
-3.5204115 4.9357491 -2.0219564
-2.4673662 6.8719039 -1.7818688
-3.5355673 6.8080859 -1.8085696
-1.9299068 4.9669256 -1.9745448
-2.5557175 6.0098958 -1.8271134
-3.323061 6.611927 -1.808033
-2.4729941 5.8548508 -1.8313048
-3.2386365 5.6497707 -1.8803599
-2.6141338 6.8381228 -1.7869992
-3.2154989 4.8957243 -2.0114028
-2.3354056 6.2586284 -1.791978
-2.5206053 5.4058518 -1.9160832
-2.3788009 4.7806845 -1.979028
-2.5422194 5.2101436 -1.9890856
-1.7887799 5.6009355 -1.8864337
-2.1177025 4.916079 -1.9842582
-2.6386082 5.8093634 -1.8390818
-3.1961646 6.6699061 -1.8070071
-1.5954767 5.4834051 -1.8949713
-2.6960731 4.9327402 -1.9929124
-1.743898 5.2438827 -1.9562941
-1.6104246 5.2532172 -1.944088
-2.5058758 4.8193254 -1.9768438
-2.0950086 6.9479938 -1.7700694
-3.5596144 6.8021045 -1.8100573
-1.8778791 5.448966 -1.9139854
-2.7147162 5.1668906 -2.0037315
-2.2319431 4.8428168 -1.9760389
-2.3162954 5.3227062 -1.9289248
-3.739228 5.8867092 -1.87775
-1.9837908 5.5709648 -1.8982936
-2.2859161 6.9079089 -1.7751997
-2.2431877 5.4941134 -1.9055411
-2.7508802 5.2479835 -1.9723848
-2.0405953 5.7329507 -1.8630079
-2.0884347 5.5670061 -1.8756932
-3.6648028 5.3674784 -1.9470763
-3.7239759 5.3451529 -1.9520156
-2.4717581 5.7053185 -1.8557017
-3.3280976 6.3327003 -1.8093153
-2.9450974 5.7267623 -1.8576269
-3.2896233 5.3948321 -1.9407238
-2.8738742 6.4712453 -1.7891746
-2.1355097 6.6761069 -1.769564
-2.2869122 4.9352021 -1.9797852
-2.1216779 6.3140244 -1.7863721
-1.8552006 6.5800972 -1.777962
-1.878085 5.61552 -1.8672553
-2.0338147 5.957015 -1.8121612
-3.2843874 4.8497777 -2.0114028
-2.4375551 5.2807117 -1.932999
-2.9184115 6.461864 -1.7918248
-1.6819876 5.641818 -1.8555721
-3.2164102 5.8284326 -1.8655379
-2.4718919 6.4504113 -1.7981216
-3.2290916 6.9202147 -1.7996432
-2.8677342 5.3442173 -1.9165853
-2.5155728 6.5609684 -1.7743342
-2.3915625 6.2291603 -1.7897357
-3.5151873 6.2529263 -1.8146156
-1.8435771 5.7754102 -1.855426
-1.8766659 4.8269401 -1.9710175
-2.4271629 4.8719139 -1.9812558
-2.4543991 4.8499136 -1.9783146
-1.8561616 6.9815803 -1.761348
-2.3095472 5.2457705 -1.9646765
-3.5314109 5.4062448 -1.9334936
-2.9431965 5.9134054 -1.8498187
-2.2323565 5.1490273 -1.9893224
-2.6329916 4.9645848 -1.9921944
-2.794178 5.6077166 -1.8711367
-1.5938694 5.1733141 -1.9694905
-1.6525923 5.4861126 -1.9017621
-3.1639369 6.0138407 -1.8256141
-3.6269133 6.5122819 -1.8223977
-3.1077235 5.2606473 -1.9668165
-2.3399036 5.7442217 -1.8507626
-2.5995548 5.257494 -1.9506546
-2.5643928 6.5648203 -1.7801644
-2.6869602 5.6345925 -1.8637278
-1.8156226 5.6042185 -1.8568704
-2.0791361 5.7271619 -1.8655351
-3.6532798 5.275991 -1.9735793
-2.1984541 5.7835512 -1.8458232
-2.0912623 5.1998801 -1.9864502
-2.7862492 6.3567209 -1.807384
-2.8447127 5.7517471 -1.8504481
-2.7654927 6.3636804 -1.8068392
-2.1226592 6.1073222 -1.8073189
-3.1823795 5.1491175 -2.0185611
-1.7415301 6.9911337 -1.7562177
-2.4152412 5.4518332 -1.8815352
-3.4766617 5.5875793 -1.9018964
-1.9628648 5.2337484 -1.9807062
-1.56141 6.0230155 -1.789428
-2.7453768 5.1464152 -2.0023365
-3.7265866 5.0852261 -2.0346808
-3.4315269 5.7601824 -1.8800926
-1.6948112 6.1602612 -1.7840312
-3.0698996 6.7013235 -1.8003378
-3.4135561 4.9988585 -2.0185611
-3.0328915 4.9670272 -1.9974545
-2.6796637 4.9395499 -1.9921944
-3.060936 5.540688 -1.892128
-2.1568353 5.5368047 -1.8743953
-2.8240709 5.0993719 -2.0009418
-2.5606549 5.2619085 -1.9459012
-2.9648156 5.7208791 -1.8588237
-2.1064785 5.5277629 -1.8989524
-3.0926778 5.8409486 -1.850983
-2.3628638 6.625689 -1.7764543
-2.3703184 6.0710258 -1.8230381
-3.2537196 5.4121342 -1.9394602
-3.0059428 6.9778481 -1.7897249
-2.8994322 5.3227792 -1.9152871
-2.9624355 5.2052569 -1.995473
-3.0285327 6.72224 -1.8008506
-1.9072734 5.295588 -1.9263195
-2.028734 6.3324037 -1.7830083
-3.1592524 5.1478958 -2.0138078
-1.6433426 6.3837218 -1.7661904
-1.549451 4.9242706 -1.964132
-2.3915784 5.3120098 -1.9363943
-2.3931944 5.7201614 -1.8501451
-2.9243968 5.3285332 -1.9211289
-2.6529157 5.5544767 -1.8863858
-2.6729782 6.5380335 -1.7844045
-2.3265941 6.071527 -1.8183804
-3.4682124 6.1470156 -1.8406199
-3.3490217 6.1602392 -1.8275434
-1.8475412 5.1001115 -1.9739023
-1.6709336 5.4844871 -1.9031202
-2.3663564 5.3006392 -1.9289248
-2.8679318 5.5789137 -1.8736062
-2.7562499 5.1278353 -1.9981519
-1.9803869 5.5702262 -1.8640102
-2.4161391 6.6105542 -1.7775142
-3.2043548 5.9989328 -1.8272958
-1.9260483 6.9786682 -1.7654521
-2.5399854 5.2614737 -1.942506
-2.6432409 6.3821106 -1.7981216
-2.081003 5.3968544 -1.9214548
-3.7471075 5.1461396 -2.0197885
-2.4401472 5.4614568 -1.8880259
-3.7663743 5.6737776 -1.912113
-1.6419119 5.7965112 -1.8427892
-1.6228962 5.6374478 -1.8484322
-2.8907382 5.579989 -1.8773105
-1.6874872 7.0083508 -1.7572436
-1.7516091 5.3313389 -1.9200426
-4.7628522 7.7154164 -1.8192899
-5.3478384 7.4571919 -1.843074
-5.9768548 8.0123587 -1.8531493
-4.7710838 8.2766228 -1.8363904
-5.6177893 9.0080538 -1.8379889
-5.2203536 7.114202 -1.8489016
-5.331284 8.3418398 -1.8338978
-5.4787107 7.8763452 -1.8449411
-3.8798065 7.1513219 -1.8295828
-5.8607674 8.0661697 -1.8480418
-3.8891287 7.1152697 -1.8229516
-5.1849923 7.500154 -1.8303324
-4.4998908 7.4745765 -1.8263452
-4.5868759 8.3466139 -1.8302826
-4.1090417 7.4015307 -1.8107351
-5.5048432 8.2377758 -1.8354695
-4.137105 7.6392016 -1.8179418
-5.51754 7.3471885 -1.8456221
-4.0240512 7.0689249 -1.8291092
-4.7373586 8.6481962 -1.8260401
-4.2322598 8.8476238 -1.8154323
-3.8352113 8.9372711 -1.7989312
-5.3977008 8.3013592 -1.8342907
-5.5966773 7.83391 -1.8518636
-5.5956984 9.0356712 -1.8401957
-3.8283474 7.1635828 -1.8262672
-4.413146 8.7961168 -1.8221114
-5.8262501 8.0717964 -1.8448986
-5.2420669 7.4818621 -1.834155
-3.919486 8.09375 -1.8031508
-4.3266129 8.830266 -1.8205397
-4.4186049 7.271203 -1.8206754
-5.0832787 8.4723825 -1.829969
-4.9362917 7.6428709 -1.8260854
-5.0081029 7.5960083 -1.8260854
-5.370945 7.0601153 -1.8595165
-5.4223695 7.0354772 -1.8621701
-4.7357788 7.3598866 -1.8325372
-4.1179652 8.0165701 -1.8073978
-5.1000295 7.1842108 -1.8458058
-4.4322324 7.5216856 -1.8276719
-3.9001157 7.4895663 -1.8057652
-5.4313383 7.9138379 -1.8457558
-4.0489311 7.4301476 -1.8098316
-4.4552073 8.4176321 -1.8302826
-5.0996823 8.0945063 -1.8392407
-5.0352335 8.1048012 -1.8339472
-6.0057306 8.8968601 -1.8600578
-4.1785789 8.4994497 -1.8192884
-4.2292919 7.9849482 -1.8124944
-4.0387435 8.048028 -1.8056991
-3.9706995 8.903677 -1.8036456
-5.8941522 8.0588207 -1.8507919
-4.4105592 7.5389361 -1.8285567
-4.7105217 7.3714495 -1.8316526
-4.2108207 7.6032767 -1.8188262
-4.7436738 7.7386847 -1.8214133
-4.5029025 7.863205 -1.8180158
-5.5499859 7.3423195 -1.8490199
-4.636096 7.1646843 -1.8265489
-5.0115519 9.2539549 -1.8207014
-3.9403412 8.9107227 -1.802467
-5.83248 7.1628819 -1.85624
-5.6858816 8.9908266 -1.8420348
-4.2161546 7.3747268 -1.8175126
-4.7937055 7.3479209 -1.8374023
-4.9273577 8.5436344 -1.8264329
-4.3114395 7.3262119 -1.818868
-3.8436592 7.7539845 -1.8104228
-3.9115469 8.9212589 -1.8020742
-4.3315191 7.5666504 -1.8250184
-4.0371356 7.6836886 -1.8161725
-4.1913505 8.8692446 -1.8158252
-4.8698559 7.6714854 -1.8235369
-5.988873 7.6231689 -1.8657081
-4.9606671 8.1552401 -1.8347616
-5.7401252 8.9516201 -1.8412991
-3.8201451 7.7677712 -1.8108652
-5.3622713 9.1328335 -1.8332071
-4.5972457 7.2035465 -1.8292601
-4.2937365 8.8332186 -1.8181825
-4.6723418 7.1713486 -1.8324229
-4.7120323 8.6664858 -1.826826
-4.4920483 7.2375283 -1.8229346
-4.6556435 8.6924591 -1.8260401
-5.6481586 8.9936867 -1.8387244
