# .PCD v0.7 - Point Cloud Data file format
VERSION 0.7
FIELDS x y z
SIZE 4 4 4
TYPE F F F
COUNT 1 1 1
WIDTH 1503
HEIGHT 1
VIEWPOINT 0 0 0 1 0 0 0
POINTS 1503
DATA ascii
5.6884842 -2.3613803 -1.7696862
5.759594 -1.5063372 -1.7698836
5.0850086 -2.5075271 -1.780928
5.5238404 -0.44371405 -1.768495
5.9201269 -0.9455837 -1.7834665
6.1322761 -1.9189228 -1.7950928
5.6062813 -0.66057473 -1.7724901
6.0342116 -1.343832 -1.7768652
5.367372 -1.6241571 -1.7915555
4.8889751 -2.0136719 -1.7993915
4.9673023 -1.1831218 -1.7947416
4.8917074 -0.95284724 -1.7996285
5.2796502 -1.1967168 -1.7876792
4.9154048 -0.82189715 -1.7996285
5.9039478 -2.457232 -1.7857779
4.5798316 -1.8492888 -1.8176347
5.6207547 -1.5870169 -1.7815011
5.7331328 -1.6251599 -1.7717359
4.5661931 -0.92978066 -1.8017015
5.0441365 -0.75722843 -1.7925875
6.5098424 -2.5881851 -1.7685039
5.0843701 -1.3885314 -1.793115
6.2498364 -1.3361173 -1.7846136
4.5056362 -1.2316408 -1.8063862
5.7542715 -1.5339435 -1.770501
5.1445222 -1.715417 -1.7910746
4.8928514 -0.93711543 -1.7988932
4.8638101 -0.41628316 -1.7944716
5.4587674 -1.3621293 -1.7659996
5.2058187 -0.43187067 -1.7756798
4.7387438 -1.9614882 -1.8033578
6.1381793 -0.75096434 -1.7774634
4.4523554 -1.0312783 -1.810138
4.9016266 -2.0370269 -1.8070631
5.8462281 -2.0273218 -1.7786598
5.8859367 -1.8461754 -1.7726777
6.3849964 -2.5284765 -1.7866796
5.7566204 -2.2114213 -1.7720792
4.7838888 -1.4100389 -1.8010991
5.3447771 -2.4152889 -1.7897148
5.0153203 -2.1598165 -1.8046559
4.9166832 -0.74286318 -1.7952166
5.7766008 -0.41050744 -1.7650733
4.6744995 -1.7703949 -1.8055111
5.0187097 -2.6336505 -1.7802792
5.7691917 -1.0461503 -1.789083
4.395484 -1.231442 -1.8077469
5.5719714 -0.42704827 -1.753018
4.8182235 -0.9610222 -1.8071738
5.3986888 -1.6299915 -1.7705431
5.5044065 -2.0031946 -1.7871875
5.3111076 -1.9183962 -1.7731392
4.8738909 -1.0130774 -1.7974225
4.4840212 -1.7892612 -1.8256614
4.7273216 -1.3519411 -1.8086684
5.5733938 -1.7837886 -1.7852919
4.4372644 -1.0866988 -1.8093408
5.0365982 -0.69158357 -1.7861257
4.6082344 -0.69194341 -1.8017015
6.59589 -0.95594108 -1.7874932
5.5510712 -0.6486463 -1.7849668
4.3670764 -1.6727132 -1.8087287
5.0916557 -2.4810743 -1.7789812
5.7342615 -1.7231048 -1.7809968
4.4125009 -1.4866538 -1.8001397
6.6044922 -0.78823829 -1.7835691
5.1267977 -2.4386101 -1.7835246
4.6045465 -1.2960705 -1.8073006
5.8875804 -1.8976837 -1.7780616
4.376595 -1.6684364 -1.811852
4.7223177 -2.0245147 -1.8069476
4.9123955 -0.63981581 -1.7878633
5.5247836 -1.1682786 -1.7731392
5.1031184 -2.3923278 -1.8014388
4.4995842 -2.0769396 -1.8243593
6.5379725 -1.147591 -1.7796448
4.7298918 -0.76193571 -1.8103608
6.3948941 -0.76769471 -1.7997506
4.8704171 -2.4899983 -1.8080512
4.5486803 -1.538922 -1.8149508
5.4337249 -2.2028711 -1.789083
5.6456413 -2.4905612 -1.7732759
4.9043608 -0.39706638 -1.7746271
4.4028544 -1.5374702 -1.8032631
4.998136 -2.1711144 -1.8005815
5.3760614 -1.6083863 -1.7928734
6.416636 -1.6540977 -1.7762812
6.557961 -1.0875294 -1.7824478
6.1711092 -1.6474762 -1.7834491
5.0794358 -2.4595883 -1.8040743
5.3355799 -0.87006187 -1.7849633
4.8755388 -1.5913044 -1.8033578
5.4707823 -1.2144001 -1.7902379
6.4410753 -1.5315061 -1.7745994
6.4032383 -0.80948573 -1.803826
4.4945898 -1.3047776 -1.8102902
5.0340028 -0.90999347 -1.7983317
6.0094271 -1.4177684 -1.7744722
5.0575047 -1.9830582 -1.79447
5.3873758 -1.5290816 -1.78892
4.8724089 -0.77421492 -1.815393
5.6893492 -1.797778 -1.7742054
6.5381832 -1.1900522 -1.7818872
5.6793971 -1.8536477 -1.776675
5.6154861 -2.530077 -1.7696862
4.3679852 -1.3129952 -1.8061527
5.5622864 -0.41181612 -1.7810137
4.6009121 -2.3245366 -1.8134098
5.8026533 -2.1045001 -1.773874
6.1949835 -1.6017869 -1.786942
6.6133628 -2.0803206 -1.8052046
5.3002882 -1.8713464 -1.7961679
6.1009693 -0.58132172 -1.7601144
5.5136809 -1.1840748 -1.7705431
5.3730974 -0.66079968 -1.7876792
4.5016375 -2.2361081 -1.8165412
4.5530705 -2.1294298 -1.8165412
4.5079408 -1.2019135 -1.8040438
6.0970674 -0.56160277 -1.7583199
6.516149 -2.5670075 -1.767974
5.5453901 -0.48064694 -1.7770604
5.1120372 -1.2674392 -1.79172
6.1258931 -1.8748296 -1.789271
4.7749729 -1.1490192 -1.8064268
5.1866884 -1.5769066 -1.7903956
4.5067668 -1.7820526 -1.8333116
5.5461702 -1.0820625 -1.7744375
6.1151285 -0.71879953 -1.769088
5.4525061 -2.4602268 -1.7791445
5.6064711 -0.75000614 -1.7763846
6.3518991 -0.55101073 -1.779956
5.1791525 -2.2420142 -1.8040743
4.7504601 -2.0012476 -1.8134098
4.4816208 -1.3163462 -1.8063862
6.2983475 -1.2227215 -1.7921821
5.8806386 -1.053401 -1.776675
4.6240516 -2.6254792 -1.8105499
4.4755049 -2.3204699 -1.8224238
5.5418468 -0.90513641 -1.7941912
4.3852634 -1.6402694 -1.8110712
4.7108932 -2.4541216 -1.8084579
6.3623104 -0.97761917 -1.7985859
4.4804106 -0.85391605 -1.8061527
5.5168839 -1.9685698 -1.7871875
4.3814197 -1.2871057 -1.8085438
5.5752406 -0.66935414 -1.7941912
5.5426702 -0.851686 -1.7915555
5.1045456 -2.4675124 -1.780928
5.412858 -1.6156865 -1.7737882
5.2994246 -1.0966188 -1.7870002
5.4400659 -1.3609726 -1.7915555
5.2548823 -1.2695023 -1.7849633
6.4250422 -1.6132736 -1.7757207
4.5070395 -0.48950517 -1.794197
5.9906421 -2.3183386 -1.7945106
5.5368433 -1.8587286 -1.7815011
6.5529776 -2.4986739 -1.770624
4.6007147 -0.50723606 -1.7884276
4.5122013 -0.47574902 -1.7957909
4.4482327 -1.0082072 -1.8061527
5.8331685 -1.2639406 -1.7748228
4.719265 -0.63129407 -1.7981201
5.0926018 -1.9232862 -1.7985444
5.5849385 -0.57827657 -1.7621051
5.0515246 -0.58880401 -1.7868437
4.5117435 -2.014255 -1.8183818
6.4356637 -1.5944877 -1.7774024
5.5342269 -2.2198298 -1.7729706
6.3899622 -0.96122789 -1.8061544
4.4240222 -2.2742445 -1.8318312
5.8820438 -1.0345998 -1.7760576
5.334229 -0.9560231 -1.7897166
5.7547164 -1.6116866 -1.7772924
4.8096042 -1.0301768 -1.8094155
5.532135 -1.1516703 -1.7744375
6.171721 -1.6892031 -1.786942
4.6491046 -2.2309055 -1.8141279
5.6970892 -1.3034643 -1.7827647
4.6139035 -0.62625432 -1.8001397
5.1990881 -0.39839059 -1.7721927
4.531951 -1.6533729 -1.8241314
4.6027603 -0.52208167 -1.7899892
4.9602733 -1.8364249 -1.8000889
4.3708467 -2.3787205 -1.8325785
4.4452596 -2.2324488 -1.8318312
6.4697409 -1.3781085 -1.7729176
6.1414628 -2.4831936 -1.7757207
5.2493658 -1.3908974 -1.7937909
5.6087999 -0.73238921 -1.7763846
4.4161658 -1.1404964 -1.8061527
5.9028864 -1.8108588 -1.7744722
4.4956021 -1.2745425 -1.8071672
6.5570865 -1.045065 -1.7802055
5.144464 -1.7333467 -1.7931117
4.5996203 -0.42687055 -1.7845234
6.604382 -0.85146242 -1.7858114
4.6027126 -1.4135774 -1.8203061
4.8695054 -0.56347543 -1.8026909
4.6263194 -1.9461153 -1.8135999
5.3512373 -1.7915509 -1.7718412
5.0595679 -2.0389731 -1.8026189
4.5298448 -1.1393837 -1.8063862
4.4908848 -0.77573144 -1.8045586
5.0733819 -1.9525764 -1.795828
4.877213 -2.0900521 -1.8063657
5.0549932 -0.54098004 -1.7861257
5.0203466 -2.1433196 -1.8039768
5.385006 -1.6999476 -1.7731392
4.8645005 -1.5708983 -1.7968956
4.7617044 -1.4769663 -1.8003638
5.3787394 -1.7258744 -1.7737882
5.899426 -1.789497 -1.771481
4.8903718 -1.960445 -1.7924176
4.810709 -2.2521784 -1.8084579
4.4972992 -0.65362722 -1.7989792
5.4755378 -2.0808084 -1.7871875
5.1640463 -1.6679951 -1.7924327
4.8403664 -2.1648552 -1.8049707
6.4962368 -1.2774498 -1.7745994
4.8416629 -0.91825807 -1.8131515
5.6629252 -2.4558067 -1.773874
5.6716456 -1.3539574 -1.7783418
4.592577 -1.4025009 -1.8149508
4.5837202 -0.82883066 -1.8009206
6.1389556 -2.5046721 -1.7774024
4.8798976 -2.475528 -1.8087302
6.3019433 -2.1867576 -1.789175
4.6432133 -1.850896 -1.8055111
5.0710578 -1.4363881 -1.793115
4.4159188 -1.5109488 -1.8048246
4.5190964 -1.1518298 -1.8032631
4.768096 -1.4625541 -1.8010991
5.0013452 -1.6924136 -1.7966018
6.4324708 -2.4541552 -1.7915833
4.6397066 -1.2590332 -1.817246
4.6099324 -1.9562271 -1.8091879
5.5712862 -0.73112315 -1.7955089
6.0882339 -0.43554714 -1.7523375
5.0346851 -2.0751047 -1.7992234
5.4143734 -1.4452626 -1.7902379
4.4373851 -1.1015376 -1.810935
4.410852 -1.9808338 -1.8287214
6.3299227 -0.43918714 -1.770641
5.4572563 -1.2654712 -1.789579
5.7900085 -0.56730711 -1.773919
4.9581103 -1.1974342 -1.7925875
4.7694631 -1.1794343 -1.8071738
5.3499827 -0.63250661 -1.7781724
4.6611586 -2.2186701 -1.8162818
4.8173037 -1.2325591 -1.7952166
4.5654764 -0.91472781 -1.8001397
5.2036443 -0.58856302 -1.7805617
4.5300946 -1.6204427 -1.8187759
5.0363317 -2.5172579 -1.7994621
6.3983254 -0.68668598 -1.7980038
4.4182057 -2.2976089 -1.8340727
5.9400697 -0.89139175 -1.7871706
4.6366506 -1.8821589 -1.8077172
4.8249526 -1.2022671 -1.7952166
6.4096265 -0.89219093 -1.8090655
6.0656519 -2.120126 -1.7950928
5.7514215 -2.2301931 -1.7726777
5.192513 -1.5964581 -1.79447
5.4837847 -1.199267 -1.7935323
6.0435195 -1.2267576 -1.7720792
5.7665248 -1.1019341 -1.7916102
5.7856059 -0.9275142 -1.7878194
5.1491122 -1.0892645 -1.7903253
4.7219014 -2.4410477 -1.8098526
5.3014855 -1.8905584 -1.7988033
4.5746775 -1.4839603 -1.8180109
4.4608364 -2.3485446 -1.8224238
5.9501987 -1.6126572 -1.771481
6.4710412 -1.4530139 -1.777963
4.7140307 -1.684513 -1.8084525
5.3662348 -0.72851038 -1.7883582
5.0464134 -2.0613871 -1.8012605
4.8306494 -1.1554137 -1.7930105
5.6484418 -1.9224485 -1.7742054
4.7791524 -2.3482962 -1.8133397
4.7137036 -0.8354708 -1.8088304
5.2859597 -1.9225239 -1.7974855
4.7230968 -0.55641091 -1.7958252
4.5779772 -2.3855858 -1.8162818
5.4320364 -2.2221096 -1.7909786
6.0642056 -1.1913915 -1.7762671
5.2109647 -0.69752991 -1.7882333
5.4056134 -2.5213797 -1.7735881
4.4434471 -1.9621464 -1.8379018
6.5843859 -1.0071197 -1.7863721
4.5904593 -0.82257378 -1.8032631
5.7178593 -1.757447 -1.7791445
5.4384575 -1.4847734 -1.7698938
4.9370666 -1.2664967 -1.7911518
4.7651973 -1.2340828 -1.8109096
4.9533162 -1.8604469 -1.8007863
5.7864251 -1.4938451 -1.7772924
4.57125 -2.0856435 -1.8158059
4.7898674 -2.3349297 -1.8147343
6.0467973 -2.1562896 -1.7933464
4.6981211 -1.7121608 -1.8062464
4.5360684 -2.1826241 -1.8194826
4.7616968 -2.358258 -1.8091552
4.4643116 -2.3056788 -1.8158059
5.5543957 -0.46388534 -1.7796959
5.1514797 -1.7536844 -1.7978654
4.9726243 -1.7526 -1.7938124
5.0403237 -2.0959098 -1.8039768
5.6389656 -1.5064034 -1.7802373
5.3452535 -1.8269488 -1.7737882
5.3714938 -1.7050202 -1.7692447
5.7318015 -1.1794363 -1.7852919
4.8988914 -1.0023482 -1.8062464
5.7652535 -1.4691955 -1.7686489
5.3083797 -1.0810642 -1.7890376
4.480782 -0.83210289 -1.8045586
4.370564 -0.50454962 -1.7851789
4.5648069 -1.9102287 -1.8213706
6.022522 -1.3610684 -1.7744722
4.7864227 -1.8159404 -1.7997677
4.8656163 -0.80452067 -1.8146458
5.1025839 -1.2820957 -1.7896279
5.6022043 -0.88417584 -1.7815772
6.3537211 -1.0786843 -1.8009148
6.3769269 -0.91840875 -1.8003327
5.3153257 -2.4523759 -1.7859238
5.8333869 -1.2448313 -1.7735881
4.3887672 -2.480613 -1.8224238
5.2506552 -2.1138728 -1.7776827
6.2305474 -2.3501348 -1.7858114
4.6213031 -1.909816 -1.8062464
4.5975103 -1.7896006 -1.815393
5.7740002 -0.49246794 -1.7663368
6.1180983 -0.60243607 -1.7660968
4.974637 -1.1518879 -1.7947416
4.7946663 -1.8362391 -1.805512
4.8629632 -0.72588217 -1.8086684
5.5702276 -1.0051866 -1.7776827
5.5362983 -1.9364052 -1.7897148
6.1073246 -1.9533862 -1.7910175
5.578877 -2.1265581 -1.7754402
4.5086646 -0.53994614 -1.7973851
6.4751902 -2.4007063 -1.7975767
6.3634815 -0.57210803 -1.7840312
4.5955372 -0.74922383 -1.8001397
6.5545125 -1.1081265 -1.7824478
4.3832173 -2.3322442 -1.8280953
4.661665 -1.8244328 -1.8084525
5.0374331 -0.78862721 -1.7918696
5.2500648 -1.3734641 -1.7924327
4.7233934 -0.42886469 -1.79047
5.3837342 -1.555517 -1.7902379
6.1459575 -0.81084162 -1.7822495
5.3199444 -1.0226314 -1.7890376
5.7586184 -1.5544521 -1.7735881
5.0468826 -0.84696376 -1.7990496
5.508616 -2.3513365 -1.7816142
5.0330749 -1.5893652 -1.7959044
6.5614743 -0.52258015 -1.7633874
6.4035625 -1.812765 -1.7846903
5.1844387 -2.2249796 -1.8034154
5.8372688 -1.226499 -1.7735881
6.6131368 -2.4034207 -1.7769845
5.2313347 -0.64185351 -1.793115
5.7760053 -2.1981294 -1.7762671
5.0372496 -0.74006867 -1.7889977
5.7301478 -2.2842989 -1.7726777
4.462564 -1.3795698 -1.8063862
5.6242323 -0.65365541 -1.7783318
4.6747661 -1.0733688 -1.8126558
6.5943913 -0.5670619 -1.7740389
5.5471249 -1.8816714 -1.7871875
5.8878598 -0.4343071 -1.7538314
5.0131683 -2.121738 -1.7985444
5.2124929 -0.52332383 -1.7812591
5.9997721 -1.4254099 -1.7720792
5.921515 -2.3993459 -1.7840312
5.1458254 -1.1224122 -1.79172
5.45509 -1.2830502 -1.7902379
4.5085835 -1.7418754 -1.8279564
5.5124555 -1.9865433 -1.7878194
5.8844333 -1.8762411 -1.7750704
4.7074227 -0.849599 -1.8073006
4.379148 -2.3477387 -1.8295896
5.2927241 -2.0062196 -1.7776827
4.7245216 -1.654861 -1.8084525
4.8559752 -0.4617728 -1.7929776
6.4730296 -2.4230402 -1.7992111
4.9446445 -1.2518779 -1.7925875
4.8555841 -0.87354279 -1.815393
5.5301685 -0.52306539 -1.7731072
4.9637165 -1.1658401 -1.7918696
4.8125877 -1.0071304 -1.8086684
4.6662679 -1.8432224 -1.8128644
4.9145827 -0.67943501 -1.7908045
4.7975965 -1.8546141 -1.8091018
5.5656633 -1.0405045 -1.7783318
5.2431498 -1.4069027 -1.7931117
5.9386497 -0.74867046 -1.7803794
4.7565565 -1.2080368 -1.8049324
4.7865124 -1.3944736 -1.8003638
6.5617118 -0.54335576 -1.763948
5.0483766 -0.47625542 -1.7810993
4.4245167 -2.2569971 -1.8288424
4.4511213 -1.4221176 -1.8071672
4.8538733 -2.1343992 -1.8049707
5.699307 -1.2851343 -1.7821329
5.1337361 -2.3577464 -1.8060509
4.9632745 -1.7844517 -1.7945098
5.9159551 -1.7136073 -1.7696862
4.7611799 -1.5097126 -1.8040404
4.4964128 -1.2443459 -1.8040438
4.7815571 -1.0714993 -1.8019435
4.6104364 -0.56693923 -1.795455
4.9060702 -0.87589413 -1.7996285
4.8556929 -2.1534793 -1.8084579
4.5045433 -2.2552867 -1.8209532
4.7160721 -0.87419921 -1.8126558
5.4946733 -1.2524425 -1.7692447
4.6091866 -1.9816464 -1.8128644
5.7149682 -1.7860507 -1.7809968
4.9868941 -1.0888968 -1.7940238
6.3549018 -0.49098238 -1.7793738
5.9332161 -0.80485433 -1.7809968
5.1467319 -2.3246586 -1.805392
5.2972941 -1.9078524 -1.7994621
5.0740323 -2.0078268 -1.8032979
4.5032597 -0.61121267 -1.7989792
5.3106956 -1.1162869 -1.7924327
5.0482526 -0.66085559 -1.7889977
5.2067351 -0.46492311 -1.7770746
4.5489774 -1.0685025 -1.8071672
6.5814633 -2.1730072 -1.8046597
6.0933666 -0.49371827 -1.7553287
6.4839087 -1.3386178 -1.7745994
5.3480549 -1.6550159 -1.7882613
5.4074273 -2.2617438 -1.7884512
5.9766431 -1.5194745 -1.7720792
5.5934706 -1.6937933 -1.7827647
4.8604655 -0.83507621 -1.8146458
4.4353151 -1.0714308 -1.80695
4.4440055 -1.0587972 -1.8093408
5.3087716 -1.8182094 -1.7928734
5.1543474 -2.2891779 -1.8027565
5.1774516 -2.3245189 -1.7828757
5.8134503 -0.71768934 -1.7871875
6.0264106 -2.2347355 -1.7956752
5.2572699 -2.097367 -1.7776827
6.357841 -0.5917576 -1.7828668
4.8117638 -1.2391778 -1.7937458
6.2849069 -1.2611642 -1.7904353
4.7268028 -0.6021145 -1.7996503
4.6794486 -1.0358024 -1.8111259
5.3304243 -1.7232674 -1.789579
5.4581332 -1.3801823 -1.7672976
4.6045313 -2.3626809 -1.8213081
5.8027749 -0.67931622 -1.7821329
5.0397544 -0.82142609 -1.7947416
4.6842914 -0.95988822 -1.8065356
4.5587835 -1.9245602 -1.8213706
6.3730578 -1.0202287 -1.803826
5.0399332 -2.5845232 -1.7789812
4.6085453 -2.0158465 -1.8180118
5.9413462 -0.71112454 -1.779762
4.8401713 -1.6559026 -1.7983317
4.8143058 -2.5769558 -1.8046559
6.5301394 -2.2704899 -1.7997561
6.4240689 -1.7750876 -1.7874932
4.3672652 -1.365402 -1.8125292
4.3707728 -0.51848221 -1.7859936
4.7765303 -1.4981425 -1.8084525
5.1204104 -1.8424292 -1.7978654
4.8570132 -1.0653824 -1.7952166
4.914474 -0.60869956 -1.7871277
4.5890074 -2.0417037 -1.8150705
4.7139111 -1.6344442 -1.8018343
6.5923061 -0.67138338 -1.7762812
5.3532305 -0.51385742 -1.7747769
5.8195381 -1.4245694 -1.7822316
4.5399418 -2.4571991 -1.8162818
4.6953917 -2.1362751 -1.814846
5.498342 -1.1212387 -1.7928734
5.5663247 -1.7622051 -1.7808692
5.3667698 -2.3847721 -1.7922423
4.5051575 -0.59706223 -1.7989792
5.3536263 -1.6752425 -1.7922145
6.5241551 -0.42671266 -1.7504936
5.5863719 -0.52527642 -1.7608067
5.0196967 -0.95637667 -1.7961776
4.7857885 -1.1356879 -1.8094155
4.7294326 -1.3846883 -1.8131515
5.289803 -2.5421991 -1.7909786
5.3586378 -1.7753172 -1.7724901
5.0513911 -2.0541573 -1.8019396
4.49933 -0.63949537 -1.7989792
5.4831786 -2.0443511 -1.7852919
5.8875785 -2.5157444 -1.7881068
5.59266 -2.1116776 -1.77791
6.3853183 -1.9164785 -1.7880539
4.8699522 -0.78951812 -1.815393
4.5227728 -2.4847848 -1.8155639
5.5441442 -1.0726476 -1.7731392
5.4676552 -2.11725 -1.789083
5.5921283 -2.0914631 -1.7754402
6.0473433 -1.2077652 -1.7720792
5.8041606 -2.094727 -1.7732759
4.7501264 -2.3898313 -1.8105499
5.6413355 -1.9894379 -1.7791445
6.1131439 -1.0521686 -1.7834458
5.5395908 -2.2421472 -1.7772924
5.6157408 -1.6046672 -1.7815011
4.5682402 -1.4977396 -1.817246
6.2576723 -2.2486985 -1.7830083
6.0103874 -2.2503388 -1.7927642
5.5259838 -0.96501595 -1.7922145
6.3924503 -0.78778094 -1.7997506
5.0469503 -2.6080906 -1.7848228
4.9661303 -2.2976487 -1.8087302
4.5054221 -1.7243537 -1.8241314
4.4305134 -1.4617358 -1.8040438
5.1850972 -0.90256512 -1.7903253
4.8401203 -1.7240028 -1.8069476
5.2198706 -1.4977938 -1.7937909
6.4009147 -1.8774158 -1.789175
6.4985576 -1.214368 -1.7717963
5.3803167 -2.330277 -1.789083
4.9015307 -1.982914 -1.7993915
6.1141915 -0.64086503 -1.7660968
4.8924937 -1.4619752 -1.7947416
4.5964875 -1.4274728 -1.8195411
5.7757993 -0.44694939 -1.7657051
5.7772064 -2.157069 -1.7720792
6.4545941 -1.4385973 -1.7723571
5.890305 -0.99793118 -1.776675
5.0194273 -1.6197885 -1.7945098
4.8528967 -1.040485 -1.7915398
6.3590832 -1.930316 -1.7818872
6.1665192 -1.7294756 -1.7886889
4.4887815 -0.81904048 -1.80695
5.5374241 -0.50622976 -1.7750838
5.8776474 -1.0910071 -1.77791
6.0822964 -2.0299768 -1.7910175
4.4549537 -0.99504787 -1.8077469
6.5154428 -1.2388036 -1.777963
4.4966578 -0.71863794 -1.8029644
4.6093245 -1.3131093 -1.8111259
5.7817645 -1.4347428 -1.7711184
5.7946773 -2.1429255 -1.7756686
5.3680315 -0.8579033 -1.795828
5.5689583 -2.1629312 -1.776675
5.0662289 -2.5578747 -1.7828757
6.091476 -0.41655666 -1.752936
4.7053056 -2.1052234 -1.8134098
5.4612923 -2.1543787 -1.7916102
4.8360043 -1.1246085 -1.7922752
4.5510254 -1.0013888 -1.8017015
5.5464573 -1.1001998 -1.7757356
4.503365 -0.56802422 -1.7965881
4.3929415 -1.2605833 -1.810138
5.210382 -0.50656462 -1.7798644
5.7894454 -0.89084715 -1.7871875
6.3292246 -0.4491297 -1.770641
4.61691 -1.7389412 -1.815393
5.0412788 -0.49159825 -1.7789454
4.8683734 -1.6483548 -1.8076658
6.6016874 -0.74583322 -1.7813267
5.5560555 -0.80024189 -1.7935323
5.8634276 -1.1552085 -1.7772924
4.9278235 -1.3801906 -1.7990496
6.0367312 -2.195533 -1.7945106
5.2001047 -1.545341 -1.7917536
4.4482241 -2.6195803 -1.8162818
5.9943256 -2.2658632 -1.7898532
6.4071541 -1.7054443 -1.7774024
6.1981297 -1.5818512 -1.78636
5.5558686 -0.74680209 -1.7908968
4.7262368 -2.0437338 -1.8112559
6.3947029 -2.5091014 -1.7872245
4.8717003 -0.66471672 -1.8086684
5.7152548 -2.3515675 -1.7762671
4.8362656 -2.5111029 -1.8005815
4.6275988 -1.2400594 -1.8103608
5.1275601 -1.2031009 -1.79172
5.6190386 -1.5579365 -1.7783418
5.5901608 -0.43718711 -1.7595086
5.2258801 -0.76661152 -1.7972995
4.8713965 -0.59470522 -1.8049324
6.3770218 -2.5485229 -1.7866796
5.6040316 -2.0758436 -1.7772924
5.2758641 -1.2132975 -1.7876792
4.6045251 -1.3430985 -1.8126558
4.6027875 -0.63953018 -1.7962357
5.586309 -1.710794 -1.7821329
4.3747859 -0.57472783 -1.790882
4.443193 -2.6354301 -1.817718
5.9546852 -1.5737526 -1.7696862
5.160778 -1.032582 -1.7903253
5.5340166 -1.8965964 -1.7846601
5.2209253 -1.4803785 -1.7924327
4.8811641 -0.91891021 -1.7930105
5.8085523 -0.72633255 -1.7859238
4.7366824 -2.4204912 -1.8112476
4.4792318 -1.3309338 -1.8071672
5.7112975 -1.2126106 -1.7808692
5.3660827 -1.7404625 -1.7711921
5.968823 -1.5574862 -1.7726777
4.6716652 -1.1502763 -1.8187759
6.4018211 -0.8501907 -1.8049902
4.7228546 -1.4069597 -1.8131515
5.5633578 -2.6338227 -1.7684898
4.4285736 -1.1140996 -1.8085438
4.9221625 -1.4538734 -1.8047938
5.6171103 -2.0008459 -1.7729706
5.7906647 -1.398387 -1.7711184
4.5814204 -1.4385272 -1.8149508
5.1283159 -2.3650091 -1.805392
5.1883483 -2.3000951 -1.7828757
5.5567455 -0.87180483 -1.7974855
4.6366577 -1.6637384 -1.8124044
4.5051937 -0.58266038 -1.7981821
6.1919246 -1.5596126 -1.7828668
6.1066275 -1.9743074 -1.7927642
5.0461516 -0.67671186 -1.7889977
5.2881646 -2.0235052 -1.7783318
5.4359207 -1.3145857 -1.7862847
5.4390917 -1.3334893 -1.78892
6.1145391 -1.0326329 -1.7828476
4.3675046 -0.55987358 -1.7868084
5.0125356 -1.6349596 -1.7938124
6.2175221 -1.4625922 -1.7834491
4.4143329 -1.154839 -1.80695
4.4783773 -1.8033396 -1.8256614
5.7175612 -1.6791205 -1.7717359
44.859776 5.2720151 -1.1150641
44.771534 5.4043493 -1.1129549
44.627617 5.6717544 -1.1097323
44.712673 5.5398307 -1.1117245
44.236141 6.2588267 -1.1006504
44.529415 5.730413 -1.1070956
44.389507 5.996233 -1.1040488
44.318962 6.1285586 -1.1025255
44.443806 5.8614216 -1.1051035
18.287855 1.5880579 -1.7193108
18.309872 1.676986 -1.7224551
18.284826 1.5299259 -1.7184724
18.306541 1.6476812 -1.7218264
18.261599 1.8462281 -1.7191013
40.346325 3.1290936 -1.1853367
40.330154 2.7456746 -1.1838213
40.357216 2.8749721 -1.1850611
40.28006 3.3786654 -1.1837525
40.284729 2.6154366 -1.1819615
40.358227 2.3657146 -1.183959
40.322674 2.490741 -1.1829947
40.077099 3.9328253 -1.1785177
40.170677 3.6873732 -1.1809285
40.263275 3.5046606 -1.1835458
40.324345 3.2548492 -1.1849233
40.00489 4.0526214 -1.1764512
40.121094 3.8099322 -1.1796197
40.192348 3.6257195 -1.1814795
18.136076 0.80199718 -1.6979294
19.754227 0.48752218 -1.6445178
18.047251 0.20208368 -1.6868192
20.029736 1.7576721 -1.6771094
18.646229 0.24650171 -1.6597342
18.88899 1.4985814 -1.6899412
18.985041 1.6862518 -1.7011437
18.828884 1.2560405 -1.6821394
18.712538 0.74734092 -1.6677362
18.036434 -0.024715681 -1.6855615
18.676977 0.56973273 -1.6635351
19.773083 0.20837928 -1.6458288
18.269718 1.4708456 -1.7163761
18.679071 0.62853348 -1.6639352
19.776482 0.55027544 -1.6467652
18.764799 0.95610029 -1.6739374
18.98283 1.7762402 -1.701744
18.666746 0.33472881 -1.6619347
18.144581 0.91665709 -1.6993967
19.908159 1.4006627 -1.6630613
18.62525 -0.16335432 -1.6575336
19.839554 1.0203519 -1.6544449
18.043818 0.14534783 -1.6863999
18.056122 0.08873675 -1.6876576
18.913939 1.5603343 -1.6929418
18.660294 0.4519172 -1.6615347
18.218763 1.1214807 -1.7084104
18.618904 -0.33880541 -1.6571336
19.739037 -0.22612561 -1.6426446
19.736237 -0.28811005 -1.6424572
19.872852 1.2726922 -1.6589404
19.920803 1.5274239 -1.6651216
19.804241 0.73794204 -1.6499496
18.676685 0.51100284 -1.6633351
19.756079 0.084038287 -1.644143
18.223091 1.1792326 -1.709249
18.252438 1.4117277 -1.7140702
18.667303 0.12945019 -1.6617346
19.776646 0.61246663 -1.6469526
18.054052 0.28726476 -1.6876576
19.727701 -0.16402897 -1.6415206
18.187719 1.0048472 -1.7044275
19.738073 -0.10209025 -1.6424572
19.783594 0.14634596 -1.6467652
18.735943 0.80720186 -1.6703366
18.784254 1.0754266 -1.6765381
18.816847 1.195899 -1.6805389
18.128572 0.74458969 -1.6968812
18.046366 0.03197946 -1.6866095
18.01791 -0.30776778 -1.6838844
19.929474 1.4651303 -1.6654961
18.060486 0.45767117 -1.6887058
18.251043 1.2386729 -1.7126029
18.641882 0.01217739 -1.6591341
19.789888 0.79965705 -1.6488258
18.253012 1.2964489 -1.7132318
18.84841 1.3763218 -1.68494
18.250832 1.3539325 -1.7134414
18.667589 0.39340937 -1.6621346
18.093037 0.57233107 -1.6924791
19.825224 0.98837268 -1.6529466
18.23168 1.7853119 -1.7153279
18.045107 0.34381878 -1.6868192
18.964464 1.624422 -1.6985431
19.830219 0.92618066 -1.6531339
18.667706 0.27608395 -1.6619347
18.008898 -0.36422175 -1.683046
19.87079 1.2098829 -1.6583785
18.188444 1.0622233 -1.7048467
19.745998 0.30112621 -1.6433938
19.772175 0.022010939 -1.6456414
18.641829 -0.04638762 -1.6591341
18.039375 -0.19473858 -1.6859808
19.717312 -0.34981751 -1.6407715
19.754227 -0.04009239 -1.6439557
19.96637 1.6572429 -1.6703662
18.137438 0.85915977 -1.6983485
20.026098 1.8207713 -1.6772965
19.892595 1.3367516 -1.6611881
18.055868 0.40078926 -1.6880769
18.696894 0.68791646 -1.6659355
18.881695 1.4383454 -1.6887408
18.63562 -0.10491038 -1.6585339
20.010654 1.7242986 -1.6750488
18.747231 0.86668253 -1.671737
19.8407 1.1454557 -1.6551942
19.805182 0.86262804 -1.6505115
18.034275 -0.08137247 -1.6853518
18.159008 0.94600618 -1.7010735
18.775614 1.0157801 -1.6753377
18.018021 -0.13792945 -1.6836748
18.92565 1.8309612 -1.6965427
18.112932 0.68693274 -1.6949944
18.748392 0.92576498 -1.672137
18.986332 1.7164223 -1.7015438
18.623854 -0.28037626 -1.6575336
19.788555 0.67508727 -1.6482638
18.647722 0.070756607 -1.6597342
19.764864 0.36355084 -1.6452669
19.939722 1.5919317 -1.6673692
18.050888 0.23048842 -1.6872385
18.804621 1.1358404 -1.6789386
19.773575 0.42586961 -1.6462035
18.097111 0.62938166 -1.6931078
18.626635 -0.22189282 -1.6577338
19.766756 0.23935817 -1.6452669
18.016798 -0.25113657 -1.6836748
19.83824 1.0827856 -1.6546323
18.668798 0.18811181 -1.6619347
18.076851 0.51493812 -1.6905923
18.836758 1.316017 -1.6833397
18.258978 1.7301165 -1.7176338
30.714577 -2.1812763 -1.3817618
30.590273 -1.3526797 -1.3728791
30.582397 -1.2560458 -1.3722594
30.568922 -0.96700114 -1.3710198
30.691389 -2.0827105 -1.3802124
30.784235 -2.478085 -1.386513
30.662006 -1.8872156 -1.3780434
30.471699 -0.53278047 -1.3654424
30.476839 -0.67654395 -1.3658555
30.543859 -0.87013274 -1.3695738
30.569723 -1.063168 -1.3712264
30.775938 -2.3801217 -1.3856868
30.485849 -0.62884486 -1.3662686
30.741434 -2.2802925 -1.3835176
30.514496 -0.77334112 -1.3679212
30.601831 -1.4495389 -1.3737054
30.609097 -1.5462791 -1.3743252
30.586193 -1.1599684 -1.3722594
30.652973 -1.838325 -1.3774238
30.679844 -1.9851104 -1.3792828
30.808136 -2.5774987 -1.3881656
30.46723 -0.43694839 -1.3651325
30.630014 -1.6438404 -1.3756678
30.672554 -1.7428277 -1.3781468
53.975697 9.2135954 -1.0003992
54.049728 9.0516081 -1.0014143
9.9296265 -1.271865 -1.7247009
9.3760567 -0.84001154 -1.7364622
9.8730335 -1.7247139 -1.7269078
9.2640791 -1.6601099 -1.7360693
8.9566174 -1.7111592 -1.745994
10.217631 -2.2737467 -1.7202213
9.308691 -1.2336334 -1.7317477
9.9199142 -1.2389941 -1.7221261
9.2186422 -1.8469734 -1.7341049
9.1235132 -2.2949572 -1.7352836
10.635348 -2.287364 -1.7203232
8.9678535 -1.6404153 -1.7455869
9.9820461 -0.64538211 -1.7232298
8.9473515 -1.7385527 -1.7451798
9.3864613 -0.81124848 -1.7380339
9.1503515 -2.134275 -1.7329264
9.2638531 -1.5700614 -1.7329264
10.613458 -2.4225636 -1.7216765
8.9118347 -1.9946049 -1.7488446
8.8958941 -2.0645359 -1.7488446
9.0033321 -1.356202 -1.7431438
9.7123423 -2.5604284 -1.7309538
10.164046 -2.5994794 -1.7244371
8.8966055 -2.0352845 -1.7476228
10.217348 -2.2568357 -1.7195187
9.9003325 -1.4424032 -1.7235975
9.0314217 -0.40023026 -1.7297065
9.8311739 -1.9892527 -1.7283791
9.3527107 -1.0159349 -1.7352836
8.959465 -1.6098481 -1.7427366
9.0616074 -1.1183723 -1.7484372
9.0827322 -1.0052547 -1.750066
9.3647766 -0.76486152 -1.7329264
9.9568367 -1.0375726 -1.7247009
9.307972 -1.3528086 -1.7348908
10.820373 -1.1234857 -1.7203232
10.847607 -0.765737 -1.7196466
9.3830843 -0.7070756 -1.7356765
9.2608061 -1.5994964 -1.7333192
10.176628 -2.5007241 -1.7223291
9.9841499 -0.75581568 -1.7250687
9.3220911 -1.1758736 -1.7329264
9.9136438 -1.3332016 -1.7232298
9.3686619 -0.95817494 -1.7372482
10.661791 -2.1706748 -1.7206616
9.1181574 -2.3240976 -1.7356765
9.0958481 -2.409929 -1.7356765
9.0731459 -0.65934765 -1.7415152
9.7051077 -2.5259817 -1.7280114
9.7736197 -2.3155477 -1.7309538
9.7210655 -2.6117249 -1.7349998
10.699181 -1.9343199 -1.7193081
9.8417606 -1.8950418 -1.7269078
8.9476118 -1.7677753 -1.7464014
10.589847 -2.5575743 -1.7230301
9.2646904 -1.4804797 -1.7301762
9.2592468 -1.7193754 -1.7372482
9.8602085 -1.8183908 -1.7276434
10.619092 -2.3887806 -1.7213384
9.1008759 -0.73316544 -1.7484372
9.3696146 -0.67642117 -1.7325335
9.8822775 -1.5986595 -1.7247009
10.686815 -2.0015059 -1.7193081
9.8976955 -1.4737831 -1.7239652
9.0177011 -1.2571249 -1.7431438
9.3756056 -0.64726359 -1.7333192
9.3678093 -0.61713445 -1.7313547
9.054162 -1.1463536 -1.7476228
9.1608315 -2.1064069 -1.7337121
9.7379484 -2.4692571 -1.7313217
8.9342766 -1.8820624 -1.7484372
9.2538004 -1.7484553 -1.7372482
9.0784006 -2.4971242 -1.7368551
9.9522877 -1.1161686 -1.7254367
9.3714533 -0.98823571 -1.7384267
9.786974 -2.2053802 -1.7287469
9.1968384 -2.0539992 -1.7384267
9.1645813 -2.1680353 -1.7372482
9.0553522 -1.088758 -1.7464014
9.09161 -0.81873512 -1.7480301
10.649511 -2.2204952 -1.7203232
10.221955 -2.3084662 -1.7223291
9.3065796 -1.2929226 -1.7329264
9.0767078 -0.93252695 -1.7472157
10.670488 -2.1375515 -1.7209998
9.1090631 -2.3828473 -1.7368551
10.615096 -2.5283623 -1.7260752
9.7975588 -2.256274 -1.732793
9.7624693 -2.3453324 -1.7302183
9.7149 -2.4959641 -1.7283791
9.1108112 -2.3527317 -1.7356765
9.9651146 -0.9751783 -1.7250687
9.7957878 -2.110589 -1.72654
10.667478 -2.1021364 -1.7193081
9.0553017 -0.5438289 -1.7362217
9.3524551 -1.1052132 -1.7372482
8.9074354 -2.0230205 -1.7492517
9.0040092 -1.2840941 -1.7411077
9.3764477 -0.8994841 -1.737641
9.2696276 -1.436499 -1.7297833
9.791029 -2.1417677 -1.7269078
10.165309 -2.4640548 -1.7188159
9.1268749 -2.2653279 -1.7344979
9.0757961 -0.70253295 -1.7427366
8.9742117 -1.6706976 -1.7480301
9.3469915 -1.1343478 -1.7368551
9.3597612 -0.5575307 -1.7289976
9.0370712 -1.2019565 -1.7455869
9.2766848 -1.4674838 -1.7321407
9.2145309 -1.9064697 -1.7356765
10.199582 -2.3708446 -1.7209238
9.9537907 -1.0846891 -1.7250687
9.3386059 -0.4385075 -1.723497
9.1961546 -1.9932289 -1.7356765
9.7628202 -2.4103553 -1.7331607
9.0639353 -0.45864835 -1.737036
10.844058 -0.73127276 -1.7186315
8.9809198 -1.4974527 -1.7431438
8.9907627 -1.4121475 -1.7423295
9.0712471 -0.60195446 -1.7402934
9.0009642 -1.3847722 -1.7435511
9.242486 -1.776392 -1.7360693
9.0765171 -0.51643455 -1.7402934
9.8007612 -2.2246225 -1.7320572
9.9580898 -1.0060947 -1.724333
9.9850836 -0.81899965 -1.7261722
9.0216055 -1.228789 -1.7431438
9.0604944 -0.48702177 -1.7366288
8.9790545 -1.5551664 -1.7447726
10.642483 -2.2539406 -1.7203232
10.646775 -2.1850693 -1.7186315
10.858277 -0.66370547 -1.7203232
9.0173769 -1.3148675 -1.7447726
9.0633202 -0.57286382 -1.7382574
9.9800158 -0.58232248 -1.7221261
8.9959545 -1.4419081 -1.7443655
10.25068 -2.1294813 -1.7205726
9.3697033 -0.58770138 -1.7313547
9.2349367 -1.8050377 -1.7356765
9.2480154 -1.6272013 -1.7317477
9.919733 -1.3023015 -1.7235975
9.2571392 -1.5389888 -1.730569
9.3516769 -0.52754408 -1.7270331
10.596826 -2.6121211 -1.7264132
8.9761705 -1.5256599 -1.7431438
9.965806 -0.51873153 -1.7188159
9.9035616 -1.3635501 -1.7221261
8.9324875 -1.823187 -1.7455869
9.7865906 -2.2861578 -1.7320572
9.9574385 -1.0692573 -1.7254367
9.8891287 -1.5042896 -1.7232298
9.8909063 -1.4251984 -1.7213906
10.635818 -2.3224282 -1.7216765
9.3395834 -0.4973942 -1.724283
9.0628805 -0.98871148 -1.7455869
9.3490887 -1.149518 -1.737641
10.234311 -2.1596174 -1.7188159
9.7900133 -2.1737804 -1.7280114
9.8523254 -1.7849864 -1.7250687
9.0190134 -1.3440392 -1.745994
9.9467793 -1.1472088 -1.7250687
9.9778051 -0.78687924 -1.724333
9.972249 -0.61332607 -1.7210228
9.8248768 -2.0201283 -1.7283791
9.7588768 -2.3769107 -1.7309538
9.2978582 -1.3811632 -1.7337121
9.871439 -1.7564014 -1.7276434
10.823294 -1.0551044 -1.7196466
10.455266 -0.68084282 -1.7219778
9.989563 -0.70889235 -1.7254367
8.8874559 -2.0920296 -1.7484372
9.0958042 -2.440547 -1.7372482
9.3870363 -0.87076867 -1.7392124
9.3889647 -0.78175622 -1.7380339
9.2223959 -1.8779088 -1.7360693
9.0795927 -0.90400708 -1.7472157
9.7102089 -2.5761807 -1.7313217
8.9650688 -1.6981648 -1.7472157
9.9679871 -0.88071334 -1.7239652
9.8492708 -1.9285607 -1.7294825
9.9641266 -0.55003732 -1.7188159
9.8254604 -2.0846405 -1.7309538
9.839304 -1.9587358 -1.7287469
9.3677235 -0.92834014 -1.7364622
9.310235 -1.3232788 -1.7344979
9.982461 -0.85036439 -1.7261722
9.0704193 -2.6334922 -1.7427485
9.9884357 -0.72458333 -1.7254367
9.8631401 -1.83494 -1.7287469
9.139657 -2.2380586 -1.7356765
9.9819307 -0.67686629 -1.7235975
10.188252 -2.4019623 -1.7202213
9.341897 -0.40925872 -1.7238899
9.1004801 -0.76191086 -1.7488446
10.167257 -2.6343892 -1.726545
9.2301674 -1.819157 -1.7352836
9.0805264 -2.4670322 -1.7356765
8.9286346 -1.8516324 -1.745994
9.0654631 -2.6011615 -1.7399983
9.1573505 -2.1815085 -1.7364622
9.0896778 -0.6748535 -1.7451798
10.817964 -1.0889088 -1.7193081
9.0645638 -1.0609703 -1.7476228
10.227477 -2.1917589 -1.7188159
9.19034 -2.0828817 -1.7384267
9.3047686 -1.2628714 -1.7317477
10.164531 -2.565589 -1.7230318
9.0614204 -0.42999661 -1.7362217
10.628469 -2.3558297 -1.7216765
9.8573284 -1.8659172 -1.7287469
9.3519859 -1.0753675 -1.7364622
9.090188 -0.87620765 -1.7488446
10.839248 -0.79939938 -1.7186315
9.0759659 -2.5425477 -1.7388196
9.2042875 -1.9647429 -1.7360693
9.883029 -1.630643 -1.7258044
10.679837 -2.0697243 -1.7203232
9.3144636 -1.2046402 -1.7321407
9.189846 -2.0221097 -1.7356765
9.7204065 -2.6442957 -1.7364711
10.212734 -2.3401237 -1.7219778
9.2696667 -1.5111828 -1.7321407
10.619147 -2.4941092 -1.7253985
9.7437496 -2.4381804 -1.7309538
8.9420137 -1.795876 -1.7464014
8.9123154 -1.9653488 -1.7476228
9.3572674 -1.0462055 -1.7368551
9.0485735 -1.1745459 -1.7472157
9.3430576 -0.46815407 -1.7246758
9.0999918 -0.79066098 -1.7492517
10.587506 -2.5922229 -1.7240449
9.9749622 -0.91289479 -1.7258044
9.1447372 -2.2088692 -1.7352836
10.625009 -2.4602957 -1.72506
10.199271 -2.5403721 -1.7279502
9.9148083 -1.3968101 -1.7250687
9.9661713 -0.94368684 -1.7247009
10.688226 -2.0365272 -1.7206616
9.0717859 -0.96083701 -1.7468085
9.2740936 -1.4073706 -1.7297833
9.9431257 -1.1784518 -1.7250687
8.9760551 -1.5837018 -1.7451798
9.8165579 -2.0505867 -1.7280114
9.2511053 -1.6877769 -1.7344979
9.8875542 -1.6632888 -1.7276434
9.8882408 -1.5359429 -1.7239652
8.9187403 -1.9081002 -1.7464014
9.8822803 -1.6943431 -1.7276434
9.0867863 -2.5764496 -1.7427485
9.208497 -1.9354091 -1.7356765
9.0948458 -0.84782189 -1.7492517
8.9836464 -1.4689205 -1.7427366
9.0761738 -2.5272255 -1.7380339
8.9241915 -1.9385711 -1.7488446
9.8891935 -1.5679086 -1.7250687
9.0790796 -0.63110065 -1.7423295
9.0620136 -1.0318402 -1.7464014
9.9257097 -1.2080561 -1.722494
36.623837 -0.33202589 -1.2710741
36.377876 0.6418801 -1.2612982
36.31374 0.75492835 -1.2587937
36.243092 1.0952911 -1.2562891
36.626694 -0.2169525 -1.2711549
36.509682 0.35731235 -1.2664689
36.611347 0.01317429 -1.2705085
36.073689 1.6577729 -1.2503105
36.095375 1.4315473 -1.2507954
36.173561 1.2070224 -1.253623
36.258335 0.98174763 -1.2567739
36.078285 1.7715695 -1.2507144
36.098682 1.5452662 -1.2511185
36.522621 0.24269035 -1.2669537
36.121658 1.3189363 -1.2516841
36.405689 0.52795762 -1.2623485
36.460426 0.47143367 -1.2645299
36.279232 0.86825854 -1.2575011
36.537189 0.1279787 -1.2675192
36.647182 -0.10196218 -1.2719628
26.181507 1.6074955 -1.4687175
24.733187 -0.13951474 -1.5098476
26.242441 0.66123861 -1.4699961
24.73382 -0.29493585 -1.5099865
24.748274 0.59916008 -1.5113755
24.751553 0.44366068 -1.5113755
24.728325 0.67639154 -1.5101254
24.739212 0.1324822 -1.5102644
26.278681 -0.03974973 -1.4717861
26.299868 -0.20505457 -1.4731926
26.225603 0.94946247 -1.4694847
26.25948 0.41406065 -1.4707633
24.714552 1.6488582 -1.5123478
26.169737 1.2769383 -1.4667997
24.736759 -0.37269378 -1.5102644
26.248213 0.74389654 -1.4705076
24.730816 0.90980369 -1.5108199
24.740608 -0.21727721 -1.5104032
26.178858 1.7725 -1.469229
26.208532 1.0313125 -1.4685898
26.153225 1.440923 -1.4662882
26.233778 0.82598889 -1.4697404
26.242085 0.49626899 -1.4697404
26.265554 0.24909414 -1.471019
24.742058 0.52123648 -1.5108199
24.710951 1.1034626 -1.5099865
24.707363 1.181084 -1.5099865
26.258619 0.084041297 -1.4705076
26.19356 1.195608 -1.4680784
24.760618 0.21041143 -1.5117923
24.727161 1.7277706 -1.513598
26.304375 -0.1224528 -1.4734483
24.73156 0.83202893 -1.510681
26.168362 1.6892279 -1.4682062
24.736046 0.75439602 -1.5108199
24.701538 1.2585902 -1.5098476
24.709656 1.5705687 -1.5116533
24.741508 1.806914 -1.514987
24.728252 1.0264122 -1.5109589
26.223074 0.90813214 -1.469229
26.309072 -0.28779596 -1.4738318
24.719393 0.94825441 -1.5101254
26.266636 0.33163178 -1.4711468
26.165596 1.3591394 -1.4667997
26.268202 0.16658808 -1.4711468
24.753456 -0.061841451 -1.5112367
24.739504 0.054761142 -1.5102644
26.174475 1.5245566 -1.4679505
26.266737 0.00153984 -1.471019
24.739555 -0.022960451 -1.5102644
26.326 -0.37071744 -1.4749826
26.205164 1.1136436 -1.4685898
24.701447 1.3364012 -1.5101254
26.256361 0.57904458 -1.4707633
24.742849 0.36572248 -1.510681
24.711067 1.4148281 -1.5110977
24.743876 0.28799555 -1.510681
24.706501 1.4924484 -1.5110977
16.227083 -1.3496512 -1.7006285
16.598143 -2.3925157 -1.6713505
16.134209 -1.930941 -1.6966529
16.840666 -1.2493908 -1.6845477
16.002535 -2.6075821 -1.6924434
16.989573 -0.75175077 -1.6979684
17.027679 -0.5927515 -1.7015474
16.915291 -0.96147639 -1.6908107
16.086142 -2.1820178 -1.6947821
17.67185 -2.5400543 -1.6662762
17.866291 -1.1488256 -1.6715167
17.75708 -2.0700331 -1.6687915
15.647559 -0.87764186 -1.717834
17.864101 -1.1205169 -1.6710975
16.601643 -2.3397985 -1.670903
16.132303 -1.879338 -1.6957175
17.021133 -0.48545396 -1.700429
17.836559 -1.3721957 -1.6700493
16.243164 -1.2482636 -1.701564
16.056707 -2.3066134 -1.6933788
17.813135 -1.7934147 -1.6715167
17.82621 -1.4277563 -1.6694204
16.818621 -1.3540406 -1.6829816
17.667719 -2.5961318 -1.6666954
17.015678 -0.69938856 -1.7006528
17.852768 -1.2606477 -1.6708877
17.015287 -0.4050374 -1.6995344
17.769735 -1.9584222 -1.6687915
17.699141 -2.4022412 -1.6671146
17.695444 -2.4583747 -1.6675339
16.022253 -2.4045382 -1.6910404
16.754768 -1.5609667 -1.6778373
16.652992 -2.2138431 -1.6747057
17.850683 -1.2041626 -1.6702589
17.762342 -2.1272101 -1.6700493
16.321321 -1.0737878 -1.7092814
15.620949 -0.92534459 -1.7148932
17.832745 -1.5410798 -1.6710975
16.650248 -2.2933905 -1.6756003
16.155642 -1.779225 -1.6971208
17.728292 -2.3494692 -1.6694204
16.270504 -1.1475465 -1.7039026
17.745447 -2.2950234 -1.6704686
16.584435 -2.6037014 -1.6733637
16.782063 -1.4572382 -1.6798503
16.855658 -1.090881 -1.6849948
16.900288 -1.0138803 -1.6894686
16.228701 -1.4011264 -1.7013302
16.771461 -1.5094095 -1.6791792
16.745047 -1.8524368 -1.680074
16.072115 -2.283046 -1.6947821
16.163189 -1.6516889 -1.6964191
16.326597 -1.0226289 -1.7095153
17.816767 -1.6525525 -1.6704686
16.679569 -2.1641028 -1.6769426
16.355509 -0.97282463 -1.7125556
16.952759 -0.85683006 -1.6943898
16.376333 -0.92241454 -1.7146604
17.8388 -1.3160102 -1.6698396
16.194998 -1.5521504 -1.6989917
16.709089 -2.0080087 -1.678061
15.670084 -0.43503928 -1.7183242
16.163128 -1.7286699 -1.6973546
17.02375 -0.64616418 -1.701324
16.704672 -2.0607381 -1.6782846
16.717289 -1.9557396 -1.6782846
16.74507 -1.905717 -1.6807451
16.004799 -2.4533727 -1.689871
16.293848 -1.0977293 -1.7062413
17.771404 -2.0151229 -1.6696302
17.753595 -2.1827619 -1.6698396
17.819408 -1.7092652 -1.671307
16.742521 -1.7457243 -1.6785083
17.693531 -2.4864419 -1.6677436
17.762442 -2.240494 -1.6715167
16.782598 -1.4041711 -1.6794031
16.223324 -1.2980447 -1.6996932
16.147999 -1.8297501 -1.6968868
16.037588 -2.3553329 -1.6919756
16.150694 -1.6760666 -1.6952498
16.759672 -1.6145638 -1.6789556
16.981169 -0.80482984 -1.6972976
17.817909 -1.7656244 -1.6717262
16.116232 -1.9801841 -1.6952498
16.121759 -2.0322766 -1.6966529
16.004864 -2.5048568 -1.6908064
16.698114 -2.1132071 -1.6782846
16.738695 -1.6656089 -1.6771662
16.239082 -1.1966568 -1.7006285
16.848183 -1.1435539 -1.6845477
16.732107 -1.6914941 -1.6767187
17.022577 -0.43197814 -1.700429
16.202452 -1.4501904 -1.6987578
16.808918 -1.3001026 -1.681416
17.027473 -0.5391888 -1.701324
17.79756 -1.904884 -1.6710975
16.657766 -2.2677755 -1.6760478
17.825832 -1.5969206 -1.6708877
16.582783 -2.4967573 -1.6713505
16.098824 -2.1322436 -1.6954836
16.834597 -1.1957589 -1.6834292
16.886774 -1.0396746 -1.6881266
16.588579 -2.444356 -1.6711268
16.193861 -1.5007244 -1.6982899
17.801477 -1.8487593 -1.6708877
16.588604 -2.5509765 -1.6729162
16.733004 -1.7978832 -1.678061
16.002802 -2.5560555 -1.6915081
17.829569 -1.4844003 -1.6702589
16.176207 -1.6016731 -1.6973546
16.936092 -0.90931714 -1.692824
15.654202 -0.8286913 -1.7183242
16.071333 -2.2314625 -1.6938463
16.109385 -2.0821602 -1.6959516
16.447491 -0.46043608 -1.7207408
16.458168 -0.56422502 -1.7223779
16.451918 -0.51228577 -1.7214422
15.672587 -0.78032708 -1.7202847
16.419502 -0.82133174 -1.7191038
16.440214 -0.71880895 -1.7209746
16.412872 -0.87270182 -1.7186362
15.710681 -0.53504819 -1.7237155
15.705027 -0.63366085 -1.7234704
15.692802 -0.73195112 -1.7224902
16.440248 -0.43440408 -1.7198052
15.686494 -0.48485211 -1.7205297
15.722808 -0.58493847 -1.725431
16.429937 -0.77009124 -1.7200392
15.708908 -0.68327701 -1.7242057
16.478151 -0.61671454 -1.7249504
16.466208 -0.66808891 -1.723781
45.049747 4.7211428 -1.1188141
45.199074 4.1632504 -1.121568
45.144176 4.4444394 -1.1207477
45.171841 4.3039207 -1.1211578
44.89996 5.133779 -1.1157674
45.096172 4.5828161 -1.1197516
45.004864 4.8594794 -1.1179352
44.961559 4.9977579 -1.1171149
27.982269 2.2500653 -1.4082016
27.849916 3.0339167 -1.4048616
27.79858 3.1166925 -1.4024429
27.753424 3.3325245 -1.4012911
27.951191 2.3359454 -1.4068195
28.084703 2.0365145 -1.4131539
27.906132 2.5088034 -1.4050919
27.630398 3.7588322 -1.3973753
27.706926 3.5921168 -1.4004849
27.736874 3.4189546 -1.4009457
27.799452 3.2495165 -1.4033643
28.057579 2.0788348 -1.4117719
27.663837 3.6749277 -1.3986423
28.041162 1.8562696 -1.409929
27.720057 3.5053132 -1.4006002
27.853355 2.9457788 -1.404516
27.860487 2.858047 -1.4044008
27.807539 3.1619439 -1.4032491
27.884197 2.5951741 -1.4042857
27.921833 2.4218268 -1.4055526
28.086981 1.947994 -1.4129235
27.586815 3.841176 -1.3955326
27.86734 2.7703125 -1.4042857
27.885839 2.683722 -1.4048616
28.003136 2.1632349 -1.4090078
33.829773 -0.34437805 -1.3154231
33.765335 -0.13158828 -1.3124502
33.68766 -0.025518339 -1.3089368
33.790726 -0.23785298 -1.3136214
40.541248 2.0571856 -1.189676
40.453278 2.2438295 -1.1869898
40.585445 1.9316299 -1.1909848
40.541958 2.1210728 -1.1898139
40.375889 3.00383 -1.1860255
55.197197 6.7650232 -1.0192446
55.403458 6.4373031 -1.0229077
55.279724 6.5989695 -1.0206127
54.986198 7.0022511 -1.0152725
54.442863 7.9783831 -1.0063132
54.772671 7.3249979 -1.0115211
54.632507 7.6558895 -1.0094467
54.509232 7.8132439 -1.0072401
54.725624 7.4937582 -1.0109916
54.914368 7.1684566 -1.0141691
55.040779 6.9213848 -1.0162435
65.236076 -3.6165211 -0.85772789
62.104225 -3.6374414 -0.80675602
61.301907 -3.9767399 -0.79403746
61.360004 -3.7869997 -0.79478765
61.253201 -4.1668358 -0.79345047
34.187481 -2.3922207 -1.3352424
33.979668 -1.4675243 -1.3235312
33.954163 -1.3595971 -1.3221797
33.937508 -1.0386997 -1.3209184
34.162933 -2.2826991 -1.3338012
34.016201 -1.7904127 -1.3258733
34.06163 -2.1148367 -1.3287561
33.882877 -0.55779362 -1.3179456
33.944614 -0.77212566 -1.3209184
33.976559 -0.93304324 -1.3225402
33.968021 -1.1464417 -1.3224499
34.255451 -2.6132982 -1.3390261
33.926903 -0.66511202 -1.3200177
34.231613 -2.5033617 -1.3375849
33.963341 -0.82591218 -1.3218193
33.984867 -1.5747477 -1.3239815
34.00769 -1.6828582 -1.3252426
33.940292 -1.2522776 -1.3213689
34.018242 -2.0049181 -1.3265039
34.130054 -2.1728537 -1.3319993
34.000439 -1.8967197 -1.3254229
33.864479 -0.45110038 -1.3170447
45.519558 2.9694982 -1.128189
45.547295 2.6840284 -1.1284819
45.52467 2.8262463 -1.1280717
45.517944 3.2567456 -1.1287162
46.042042 2.0602555 -1.1420168
45.906021 2.2710476 -1.1383255
46.046291 1.9155183 -1.1419582
45.285912 3.956099 -1.1235601
45.381611 3.6772504 -1.1256694
45.479576 3.39765 -1.127896
45.523964 3.1134689 -1.128599
45.239811 4.0237055 -1.1223882
45.341942 3.8174617 -1.1248491
45.937492 2.200259 -1.1391457
45.416862 3.5364978 -1.1263726
45.637344 2.5454426 -1.1308842
45.78886 2.4095383 -1.1351029
15.372403 -1.8355188 -1.6943078
13.475964 -2.2677989 -1.7140872
13.587829 -1.4167579 -1.7135271
13.592215 -1.3740636 -1.7135271
14.620768 -1.8284264 -1.6936319
15.352454 -1.9800595 -1.6940628
13.916427 -2.4255948 -1.7053049
15.301543 -2.3412099 -1.6940628
14.620791 -1.9217848 -1.6951756
14.6699 -1.5776234 -1.6962049
13.517906 -1.8187337 -1.7104458
13.955997 -2.0949693 -1.7034158
13.383923 -2.5562227 -1.708485
13.937254 -2.339103 -1.7061145
13.998337 -1.7428472 -1.7026062
13.598433 -1.3315449 -1.7138071
14.628028 -1.7360657 -1.6931174
13.507702 -1.9904516 -1.7124065
15.400173 -1.642845 -1.695043
14.541626 -2.401665 -1.6941466
13.500612 -2.2283208 -1.7166082
13.509218 -2.0340416 -1.7135271
13.57472 -1.5016763 -1.7129668
13.382152 -2.5123551 -1.7070844
15.358682 -1.8828239 -1.6933275
13.85564 -2.5947526 -1.7012569
15.477963 -1.3322122 -1.7009246
13.88143 -2.4644024 -1.7015268
14.692542 -1.5333503 -1.6985202
13.966431 -2.0516984 -1.7039557
14.07735 -1.3721867 -1.7077336
13.547559 -1.6496661 -1.7115662
14.00311 -1.6541506 -1.7017968
14.632347 -1.7831943 -1.6944039
14.565577 -2.2648096 -1.6944039
15.48405 -1.2837517 -1.7011696
15.522718 -1.0907837 -1.7041104
14.797465 -1.145745 -1.7075253
13.851314 -2.6390173 -1.7017968
13.645667 -1.1631924 -1.7182889
14.612984 -1.874101 -1.6933746
13.932804 -2.2933538 -1.7044953
13.426911 -2.4334652 -1.7112862
14.697936 -1.4406248 -1.6980057
13.569462 -1.565852 -1.7132469
15.305539 -2.6380553 -1.7004344
15.325723 -2.4436219 -1.698964
15.374351 -1.9338268 -1.6960233
14.508651 -2.4899964 -1.6918312
14.572599 -2.3597322 -1.6972339
14.121121 -1.197577 -1.7115117
15.288229 -2.3883402 -1.6933275
15.478118 -1.2342836 -1.6999444
14.618614 -1.9682301 -1.6956904
14.783781 -1.168071 -1.7059816
15.511601 -1.1879779 -1.7036203
15.325824 -2.1481874 -1.6935728
15.525153 -1.1399873 -1.7048455
13.51781 -1.9485633 -1.7129668
15.299356 -2.1934745 -1.6911221
14.824729 -1.100973 -1.7106125
13.950853 -2.2063925 -1.705035
15.378319 -2.6009898 -1.7085216
13.961095 -2.1406267 -1.705035
14.028467 -1.5901856 -1.7042254
14.830093 -1.0545317 -1.7108698
14.868957 -1.0102946 -1.7155008
14.06114 -1.4151926 -1.7061145
15.465797 -1.3801121 -1.6999444
14.724114 -1.3964647 -1.7008359
14.553429 -2.2395418 -1.6923456
14.756315 -1.2126021 -1.7028942
14.572163 -2.1955624 -1.6938891
13.974768 -2.0080969 -1.7042254
14.693338 -1.4867924 -1.6980057
13.567969 -1.5440948 -1.7126867
15.379688 -1.738443 -1.6938177
13.626254 -1.247846 -1.7166082
14.077647 -1.3275752 -1.707194
15.333637 -2.4943328 -1.7009246
13.518723 -1.6893175 -1.7082049
15.327909 -2.0748646 -1.6925924
13.863724 -2.5512109 -1.7012569
14.181223 -0.95629066 -1.7171788
14.182099 -1.0011239 -1.7177186
14.06648 -1.4604012 -1.7074639
13.49361 -2.0967784 -1.7126867
13.536926 -1.7347552 -1.7115662
14.602031 -2.059495 -1.6951756
13.641946 -1.2060559 -1.7182889
14.470874 -2.6241713 -1.6900301
14.532052 -2.4470108 -1.6938891
15.355993 -2.0295975 -1.6952882
13.577403 -1.4588149 -1.7126867
15.39539 -1.5934179 -1.6938177
14.655756 -1.6693232 -1.6956904
13.493857 -2.1837077 -1.7146474
14.031856 -1.6129097 -1.705035
13.977288 -1.8294621 -1.7012569
14.171298 -1.0674869 -1.7169092
13.598606 -1.2884516 -1.7132469
15.347261 -2.5461018 -1.7036203
14.720527 -1.3494904 -1.6998067
15.344292 -2.1016655 -1.695043
14.640587 -1.7142215 -1.6944039
13.947927 -2.1610193 -1.7036858
14.876989 -0.91696954 -1.7157581
14.057882 -1.5041562 -1.706924
14.566226 -2.3117876 -1.6954329
15.289196 -2.290154 -1.6916121
15.319876 -2.2456043 -1.6945529
13.941553 -2.384903 -1.7077336
14.142588 -1.1546921 -1.7139404
14.50662 -2.5365787 -1.6926029
13.928205 -2.2476554 -1.702876
15.447551 -1.4273907 -1.6982288
15.561713 -1.0444597 -1.7085216
13.961653 -1.8720288 -1.6999075
13.998689 -1.7875793 -1.7034158
15.362324 -1.7853563 -1.6923474
14.726668 -1.3034092 -1.7000639
13.465351 -2.3530998 -1.7146474
15.42445 -1.5230331 -1.6965134
15.599665 -0.94864148 -1.7124426
14.480999 -2.5790412 -1.6902874
14.614326 -2.0144136 -1.6959476
14.04324 -1.5472094 -1.7055748
15.437063 -1.4753373 -1.6974937
13.982969 -1.9644635 -1.7044953
14.091631 -1.2396291 -1.7080035
14.132318 -1.1091453 -1.7120514
15.580763 -0.99660915 -1.7104821
13.502607 -2.1416116 -1.7149276
15.383103 -1.689898 -1.6935728
13.421148 -2.4759903 -1.7115662
13.480488 -2.3121099 -1.715768
15.418092 -1.546857 -1.6960233
14.850283 -0.96220481 -1.7126708
13.86972 -2.5072882 -1.7009872
14.013578 -1.7000726 -1.7039557
