# .PCD v0.7 - Point Cloud Data file format
VERSION 0.7
FIELDS x y z
SIZE 4 4 4
TYPE F F F
COUNT 1 1 1
WIDTH 1557
HEIGHT 1
VIEWPOINT 0 0 0 1 0 0 0
POINTS 1557
DATA ascii
8.6730042 4.6219215 -1.6060431
9.0733185 4.4276257 -1.5860002
10.829463 3.9339292 -1.4673569
10.594151 4.7996826 -1.4832909
10.587174 4.8768644 -1.4870571
9.054141 4.4889445 -1.587692
10.466065 5.3699327 -1.5027013
9.76334 5.1418533 -1.5519474
9.4348488 4.5195346 -1.5533028
9.4827738 4.3427706 -1.5481716
9.2081842 3.5787098 -1.5487825
9.2235317 5.3065996 -1.5824857
9.0505619 4.5226798 -1.5897223
10.076393 3.8902974 -1.5160675
9.3658276 4.7793193 -1.5619614
8.6822529 4.5919056 -1.6049892
9.1635504 3.3963742 -1.5305119
9.2956448 5.0605721 -1.5731856
9.2456627 3.6773181 -1.5609629
9.173872 3.9186273 -1.5653613
9.6582098 3.4331629 -1.5189886
9.3553658 3.1863585 -1.5494591
8.6349487 4.794868 -1.6148261
8.613245 4.9612136 -1.6260682
8.9693937 3.3530829 -1.5610746
9.4666338 4.461843 -1.5539441
10.123809 3.6908188 -1.5121146
8.7671604 3.5154386 -1.5378877
8.8181667 4.1616974 -1.5923419
9.4074297 4.6525412 -1.5587544
8.6436224 3.5450447 -1.599643
9.3512278 4.9020791 -1.5690166
9.032094 3.2157164 -1.5631825
10.543308 5.0995636 -1.4951689
9.8955927 4.7056632 -1.5400888
10.508978 5.2057033 -1.4974866
9.1372013 3.3538871 -1.5237448
8.8510208 3.991816 -1.5849642
8.9968433 4.7099228 -1.5961509
9.4852352 4.3799472 -1.5510579
10.544987 5.0596008 -1.4928513
9.3546209 3.2189631 -1.5511509
10.653534 4.5668521 -1.4774967
8.8822899 5.122786 -1.6130679
8.6413364 4.7629857 -1.6130694
8.6655731 3.427413 -1.5952291
9.1731234 3.432797 -1.5342336
9.3980732 4.6847043 -1.5597166
8.9618473 4.8179417 -1.599534
8.6559305 4.6828551 -1.6085025
9.2332897 5.2736988 -1.5812029
9.3407402 3.2470341 -1.5504742
9.492774 4.3113322 -1.5475303
10.07932 3.964447 -1.5206285
8.9553223 4.8507867 -1.6012259
9.0013866 3.3006971 -1.5631825
10.103366 3.7916636 -1.5145471
10.173791 3.4040329 -1.504817
9.2751751 5.1632504 -1.5783167
9.9031839 4.6711631 -1.5388725
9.1879492 3.8905628 -1.5656998
9.2014799 3.7605426 -1.5592712
8.6419964 3.4494812 -1.5926545
9.6343565 3.4588544 -1.5167438
9.0433378 4.5546618 -1.5910755
8.7835598 4.3152366 -1.5986655
9.1056499 4.2500734 -1.5778799
8.6704636 3.3664432 -1.5919187
10.59626 4.7806072 -1.4824218
10.55904 5.0256038 -1.4925616
8.8007336 4.221252 -1.5940983
10.265689 3.2033019 -1.5087699
10.556862 4.9839997 -1.4896644
9.3472919 4.8627048 -1.5654891
9.6540365 3.3976009 -1.5164231
9.5062714 4.2814903 -1.5475303
9.0440092 3.1879766 -1.5635338
9.8843212 4.7384477 -1.5406969
10.836351 5.2601757 -1.4849542
8.7803307 4.2454691 -1.5926932
8.8403006 3.4482815 -1.5456166
9.8764982 4.7729325 -1.5419132
9.7113743 5.3508325 -1.5601572
9.0538597 3.4528775 -1.5163015
8.8210478 5.1614985 -1.6073163
9.0219641 4.5794625 -1.5897223
10.598839 4.8419456 -1.4864776
9.9501486 4.5035629 -1.5346155
9.6646624 3.3672569 -1.5164231
9.7731533 5.1274347 -1.5522515
9.4644899 4.4245982 -1.5510579
8.8078804 5.3415017 -1.6211882
10.131637 3.6576457 -1.5115064
10.800867 5.3905563 -1.4885957
8.6507025 3.3900568 -1.5900798
8.9016962 5.0411582 -1.6090076
9.8511066 4.8564973 -1.5440416
9.6343117 3.6305017 -1.5263647
10.143078 3.6258006 -1.5115064
8.8988905 3.4388158 -1.5547508
8.7611275 4.3384628 -1.5969088
10.673297 4.5356717 -1.4783658
10.532577 5.1352539 -1.496038
8.6328859 3.50893 -1.5952291
10.525282 5.1726604 -1.4974866
8.6653862 4.6528597 -1.6074485
9.0686188 4.0945225 -1.5609629
9.8375654 4.8883133 -1.5443457
9.629015 3.491112 -1.5177059
10.822602 5.3378382 -1.4880354
9.6370134 3.2900009 -1.5080851
8.8255072 3.5708346 -1.5512377
9.2469463 3.5604627 -1.5538578
10.215437 3.4538295 -1.5133308
9.4808617 3.5053122 -1.495899
8.7113724 3.6208227 -1.5357797
9.3167143 5.0341487 -1.5741477
10.834315 3.8972225 -1.4661982
8.6007776 3.6225131 -1.5978038
9.9657516 4.3418093 -1.5267098
10.836175 3.8212295 -1.4627216
10.031404 4.1103096 -1.5221488
10.02414 4.0705476 -1.5188041
9.1207428 4.222281 -1.5782185
8.7432613 3.6823349 -1.5452653
9.2635984 5.1758995 -1.5776752
9.523509 4.0752974 -1.5366268
9.625783 3.7138178 -1.5298923
8.9894333 4.7240481 -1.5961509
10.031219 4.1471195 -1.5242773
8.6202402 4.8934517 -1.6211498
10.477586 5.3343463 -1.5018321
10.176838 3.5479865 -1.5124187
10.494292 5.3014054 -1.5018321
9.0925007 4.4016876 -1.5870154
9.5765133 3.9387701 -1.5359855
9.5778599 3.9042189 -1.5340613
9.7928972 5.059545 -1.550123
8.6269989 3.5699093 -1.5985395
10.082523 3.9291532 -1.5191081
10.457945 5.4073091 -1.5041499
8.806076 5.302567 -1.6174664
8.7041264 4.4990821 -1.6007733
10.821547 5.2950706 -1.4852344
8.6951942 4.5291224 -1.6018274
9.3409224 3.3296244 -1.5552111
9.5732174 3.9725945 -1.5375888
9.8687592 4.2624025 -1.5081618
9.0046053 4.6779842 -1.5947973
8.7287445 4.4770761 -1.6028813
8.9931536 3.7741654 -1.5271283
9.040494 3.2506855 -1.5666956
10.738958 3.9394827 -1.4551892
9.618 3.5213435 -1.5177059
9.5553503 4.0357213 -1.5388716
10.200797 3.4846215 -1.5127227
10.184198 3.5147007 -1.5118104
9.4436445 4.4873452 -1.5523406
8.9832439 4.7569027 -1.5978422
9.368865 4.7993989 -1.5638856
9.3439083 3.2976213 -1.5538578
8.8865757 5.1625977 -1.617128
8.8915052 5.0909228 -1.6117145
8.7513065 4.4022264 -1.6004221
8.8347702 4.1356316 -1.5930445
9.8672123 4.7875719 -1.541609
9.5809164 3.8704376 -1.5324578
9.3416424 3.2803087 -1.5525042
9.6244812 3.6786599 -1.5276475
10.115871 3.7239778 -1.5127227
9.7839575 5.093956 -1.5513391
9.8345175 4.9254184 -1.5464741
8.6481018 4.7137747 -1.6099076
9.0700407 4.129571 -1.5636696
8.7976542 4.0847754 -1.5832076
8.9650955 3.3194609 -1.5582641
8.6082468 4.9224558 -1.6218524
8.7253876 3.7395108 -1.5463194
8.9434948 4.8807926 -1.6019025
8.6428432 3.9312837 -1.5466707
9.3427734 4.9351015 -1.5702994
9.086503 4.345963 -1.5819401
10.574265 4.9516368 -1.4899541
9.8017159 5.0251331 -1.5489067
9.6030159 3.7397766 -1.5279682
8.9424334 3.3911555 -1.5589666
10.032721 4.1847386 -1.5267098
8.7961493 4.1851721 -1.5905852
9.5526371 4.0522575 -1.539513
8.647377 4.8372784 -1.6204473
9.0087605 4.6442232 -1.5927674
9.2119474 5.3385048 -1.5834477
10.949547 5.8704252 -1.473492
12.52683 7.3263826 -1.3141087
11.337042 6.1548505 -1.4556482
13.005982 7.1938357 -1.2792468
12.725924 6.941658 -1.3124317
11.704911 7.5334444 -1.3505917
10.973226 6.8349228 -1.4592502
12.949716 6.5190697 -1.3126413
13.010581 6.3967357 -1.3126413
11.481013 5.6161265 -1.4402113
12.052304 6.1879358 -1.3786001
12.675552 7.0700402 -1.3143183
12.319329 6.3031731 -1.3414207
12.390434 6.1443491 -1.3405259
12.319777 5.963088 -1.3949705
11.356272 6.0731683 -1.4528182
12.69628 5.8787007 -1.358644
12.105849 6.0957775 -1.3793018
10.917518 6.0533504 -1.4815879
12.704789 5.9311171 -1.3619993
12.514024 7.3717737 -1.3153664
13.048724 6.3139973 -1.3124317
11.935168 7.0855117 -1.346118
12.90342 6.6233096 -1.3132702
11.719595 7.594965 -1.3557363
12.729214 5.7008948 -1.353723
11.536496 7.3207016 -1.3921641
11.519129 5.5008068 -1.4381533
12.399327 5.7629519 -1.3933334
12.660208 7.1137333 -1.3151567
12.064611 6.1464238 -1.3776647
11.987656 6.964746 -1.3443284
12.165849 6.6402922 -1.3438811
12.91855 7.3858418 -1.2810471
12.822687 6.7867947 -1.3136894
11.525137 7.3644266 -1.3938012
11.45343 7.4972425 -1.3952043
12.159912 6.0275631 -1.3814064
12.985056 7.2356291 -1.2794468
11.878026 6.5779386 -1.3821081
10.961769 6.8757048 -1.460794
12.775333 7.6270046 -1.2808471
13.037249 7.1577168 -1.280247
12.263368 6.4456162 -1.34321
11.992887 6.3491535 -1.3811727
11.494649 5.5335164 -1.4371243
11.80152 7.3361025 -1.3479073
11.6855 6.8358374 -1.3774309
12.891832 7.424408 -1.280647
10.894833 6.1305375 -1.4840168
12.02671 6.9369512 -1.3465652
11.829453 6.6729832 -1.3825758
11.447061 5.733892 -1.4430416
10.845166 6.2378721 -1.4853661
11.983409 5.4227972 -1.4068475
10.924313 6.0123615 -1.4796989
12.97013 6.4783573 -1.3126413
11.379645 5.9483409 -1.4479299
12.083183 6.793612 -1.3441048
11.809677 6.7600484 -1.3856161
12.123886 6.7166018 -1.3438811
11.285177 6.3349657 -1.4610512
11.881554 6.6043339 -1.383979
13.071452 7.0699973 -1.2790468
11.977158 5.4653378 -1.4083178
12.428899 7.5336094 -1.3164145
11.955197 5.5463076 -1.4100332
11.943115 5.5863485 -1.4107684
12.896671 5.4147344 -1.3581967
12.225477 6.4748387 -1.3409731
12.447795 6.0272961 -1.3405259
10.957425 5.8304362 -1.4718729
12.992203 6.4384623 -1.312851
10.91355 5.9619198 -1.4751112
12.271208 6.4006495 -1.3416443
11.969364 7.0550246 -1.3476837
12.758138 5.4513445 -1.3454471
11.380183 5.9942713 -1.4507599
12.049303 6.8495002 -1.3438811
11.857284 6.6396847 -1.3835113
12.023743 6.2690711 -1.3800033
11.735233 7.5008941 -1.3514864
12.446671 6.0750656 -1.3427627
11.947512 6.4215574 -1.3804711
11.972876 6.3868079 -1.3811727
12.410261 7.5757351 -1.3170434
12.157133 6.6851578 -1.3454471
11.915006 5.6876454 -1.412974
11.321127 6.1923456 -1.4561629
11.850285 7.2380238 -1.3467889
11.532775 5.462883 -1.4376388
12.842185 6.7455525 -1.3134798
11.410495 5.8281531 -1.4443281
11.917974 7.1260195 -1.3467889
11.652091 7.0895305 -1.3893578
10.898147 6.9797869 -1.4610512
12.924364 7.3354306 -1.2790468
12.472578 7.4533215 -1.3159953
12.349836 5.8821259 -1.394035
12.859788 6.703331 -1.3130605
11.86786 7.19768 -1.346118
11.81943 7.2958713 -1.3472364
11.449049 5.6899271 -1.440726
11.779789 6.7921376 -1.3844467
12.694225 7.0282469 -1.313899
10.913336 6.9412413 -1.460022
12.088089 6.8213496 -1.346118
12.114888 6.7614117 -1.3454471
12.644323 5.975697 -1.3579731
13.027039 6.3540821 -1.312222
11.766977 7.4175062 -1.3494732
12.699057 5.952745 -1.3624468
11.888129 5.7207627 -1.4117488
13.081041 6.2790098 -1.313899
11.266945 6.371366 -1.4613085
11.568808 7.2396216 -1.3902932
11.436444 7.5375752 -1.3961399
12.368255 5.8433013 -1.394035
12.352766 5.9312506 -1.3968414
11.679013 7.6209126 -1.3534994
12.182796 6.5505943 -1.3407495
12.716681 5.7432985 -1.3543942
11.603939 7.160511 -1.38889
12.929171 6.5597239 -1.3126413
11.048081 6.6903071 -1.4577065
12.395395 6.098403 -1.3387365
12.112512 6.0514803 -1.3776647
11.594866 7.2053466 -1.3907609
10.861245 7.0771117 -1.4638813
12.036328 6.2276044 -1.3790679
12.005746 6.3077388 -1.3802371
11.420975 7.5789719 -1.3973092
12.262481 6.0306926 -1.392398
11.66327 7.0211859 -1.3863176
12.294791 6.3638835 -1.3420916
12.55151 7.2879844 -1.3143183
11.629763 7.1260991 -1.3893578
12.061868 6.1211448 -1.3760277
13.050927 7.1119742 -1.2792468
12.716497 5.8396077 -1.3588679
12.720297 5.7930679 -1.3570783
12.915577 6.6039424 -1.3134798
12.371039 7.6320405 -1.3166242
12.183151 6.6001554 -1.3434339
12.361392 5.7925711 -1.3907609
12.600498 7.2109652 -1.3147376
11.225264 6.488224 -1.4641385
10.994642 6.8004179 -1.4592502
11.333963 6.2225738 -1.4595075
12.879017 6.661984 -1.312851
11.276139 6.4234772 -1.4656823
10.968674 5.7922935 -1.4707934
11.925331 5.6009045 -1.409543
11.91845 5.6434155 -1.4110135
11.996629 7.0203795 -1.3483548
10.930063 6.9037356 -1.4592502
11.667513 7.0487709 -1.3884224
12.859829 7.4598918 -1.2796469
11.366547 6.0327916 -1.4515316
12.060198 5.4118252 -1.4149345
12.965736 7.2783265 -1.2798469
12.797517 7.5858226 -1.280647
12.299466 6.3418412 -1.3414207
11.566018 5.4342513 -1.439954
12.636903 7.1267486 -1.3136894
12.50791 6.0078773 -1.3456707
11.335393 6.1078682 -1.4525609
11.483637 7.4399405 -1.3945028
11.410304 7.6236649 -1.3991801
12.349807 6.221189 -1.3403022
10.926387 5.9466581 -1.475651
10.999071 6.7554321 -1.4566774
12.205077 6.5132117 -1.3409731
12.311685 6.0070062 -1.3963737
10.9833 5.7559757 -1.4702537
11.900642 7.1664901 -1.34746
11.775078 6.9382668 -1.3926319
12.712758 6.9864125 -1.3134798
12.799544 6.8261151 -1.3134798
11.468643 5.6548133 -1.4409833
12.619633 7.1693749 -1.3143183
12.494223 7.4130855 -1.3157856
11.489688 5.575685 -1.438925
12.582947 7.2535009 -1.3153664
10.887596 6.1715584 -1.4859058
10.866432 6.204751 -1.485636
10.999567 5.7205338 -1.4699838
12.383528 6.1894388 -1.3420916
11.413271 5.8749046 -1.4474154
11.445122 5.7554426 -1.4440706
12.363905 6.2769852 -1.3445523
11.793594 7.3826079 -1.3499205
11.92015 5.7822366 -1.4186105
11.813604 6.7130704 -1.3832773
11.889434 5.8135757 -1.416895
11.245595 6.4529238 -1.4641385
11.963537 5.5045934 -1.4088079
12.839764 7.5022669 -1.2800469
11.191131 6.5154443 -1.4620802
11.401793 5.9143963 -1.4484444
11.763541 6.8321118 -1.3851483
11.513624 7.4081402 -1.3954382
12.029451 6.8883085 -1.3441048
11.693788 6.9896183 -1.3874869
12.877763 5.4544554 -1.3579731
12.828151 7.5496092 -1.2814473
11.939492 6.4657011 -1.3821081
11.567828 7.2897358 -1.3933334
12.398342 7.5952249 -1.3170434
11.42345 5.7895679 -1.4435561
10.88116 7.0172229 -1.461823
11.912542 6.548274 -1.383979
11.460208 7.4759789 -1.3945028
10.920965 6.1001329 -1.4850961
11.015721 5.6850467 -1.469714
11.275608 6.2830019 -1.4566774
11.922606 6.5050855 -1.3825758
12.756405 6.9063969 -1.3134798
11.309158 6.2552567 -1.4587355
10.946758 5.9132428 -1.4759208
11.757057 7.4629302 -1.3512626
12.964702 7.3045263 -1.2810471
12.4491 7.4924712 -1.3159953
11.838901 7.256628 -1.3467889
12.783288 6.8691244 -1.3141087
12.598552 6.0026159 -1.3546178
10.875114 7.0375485 -1.4625947
14.937413 6.7499313 -1.2136917
13.52983 5.5275321 -1.325009
13.10945 6.1915841 -1.3126413
13.164555 6.9079447 -1.2796469
13.865718 5.606935 -1.288649
14.957143 6.6179466 -1.2105687
14.246487 6.2043886 -1.2474241
15.050539 6.211966 -1.2041492
13.891419 5.516047 -1.2876487
13.80875 5.9146366 -1.2952504
13.419986 6.0066352 -1.3342324
14.125752 6.5790052 -1.2515448
13.768599 5.82095 -1.2878487
14.219959 6.2994404 -1.2487353
13.500057 6.1887455 -1.2780465
13.091733 6.2335949 -1.312851
13.824691 5.6916833 -1.2880489
13.425091 5.8073916 -1.3262668
14.885739 6.9530659 -1.2169881
14.604814 5.6630878 -1.2592245
13.50505 5.5669618 -1.3241706
13.446921 5.7667632 -1.3266861
13.200495 6.8476615 -1.2800469
14.087395 6.6420846 -1.2507956
14.944363 6.7248249 -1.2133448
14.515579 5.9722886 -1.2622215
14.766787 7.2971911 -1.2206316
14.258599 6.1564341 -1.2466749
14.05794 6.7365193 -1.2521069
13.799706 5.8851647 -1.29325
13.337154 6.5504894 -1.2788467
13.260892 6.7211556 -1.2796469
13.457295 6.2717724 -1.2776464
13.836969 5.6459808 -1.2874486
14.554341 5.7753983 -1.2586626
14.751734 7.3186116 -1.2202847
14.655054 7.5015974 -1.2199376
13.874732 7.1931481 -1.2558531
14.549127 5.8794742 -1.2618468
15.313598 5.9573092 -1.2171617
13.875871 5.5603952 -1.2878487
14.209181 6.3481627 -1.2496718
14.042084 6.7832551 -1.2526687
14.000974 6.8722243 -1.252856
13.152264 6.0859184 -1.3120124
15.26326 5.9930577 -1.2142122
15.046409 6.1274967 -1.2010264
14.939922 6.6665187 -1.2109158
14.634532 5.5690694 -1.2586626
14.592192 5.6845684 -1.2588499
13.283724 6.6803503 -1.2798469
15.055222 6.1586375 -1.2027614
14.719748 7.3604813 -1.2194171
13.903119 5.4702053 -1.2870486
13.895492 7.148612 -1.2556657
14.700116 7.408474 -1.219764
15.006123 6.415431 -1.2074459
14.676767 7.4546223 -1.219764
13.414062 5.8527436 -1.3271053
15.006017 6.359725 -1.2055373
13.863418 7.214932 -1.2558531
14.183505 6.4439297 -1.2511703
15.244355 6.0409832 -1.2142122
14.137318 6.530407 -1.2506083
13.419425 6.3570466 -1.2778465
13.851255 7.2640128 -1.2569768
13.824841 7.3056359 -1.2566022
13.357666 6.5085597 -1.2788467
14.786057 7.2490196 -1.2202847
13.973964 6.9135222 -1.2522942
14.536122 5.8210983 -1.2586626
13.917878 7.1049252 -1.2556657
14.545324 5.9311895 -1.2633454
14.070054 6.6880221 -1.2511703
13.701343 6.0221906 -1.2896491
13.216629 6.8034372 -1.2794468
14.91826 6.8544312 -1.2159472
13.122645 6.9914627 -1.2798469
13.327219 6.5976324 -1.2800469
15.069283 6.081686 -1.2013733
13.258981 6.0345917 -1.3199781
15.007572 6.5277958 -1.2114363
14.431884 6.0440693 -1.2575388
13.113767 6.168437 -1.3120124
13.138481 6.1297431 -1.3126413
13.390598 6.4726062 -1.280247
13.466625 5.7002225 -1.3258476
13.706646 7.5209184 -1.2564149
14.277392 6.1379776 -1.2476114
13.100616 7.0326519 -1.2798469
14.675166 5.4267426 -1.2575388
14.611385 5.6128769 -1.2581006
14.974211 6.5693254 -1.2102218
13.187957 6.8674712 -1.2798469
14.845784 6.9913316 -1.2152531
13.777636 5.773839 -1.2868485
13.505844 5.6170297 -1.3262668
13.450144 6.3199177 -1.2790468
13.545938 6.107058 -1.2788467
13.23794 6.7618785 -1.2794468
13.148072 6.9520473 -1.280247
15.14385 6.0564175 -1.2065783
13.959295 6.9609585 -1.2530433
14.996881 6.4672556 -1.2084868
13.799386 5.7320433 -1.2872486
14.148721 6.4817963 -1.2496718
13.794448 7.4008484 -1.258288
13.400097 6.4253531 -1.2790468
14.557596 5.7237954 -1.2571641
15.049357 6.2668457 -1.2058845
15.033273 6.3156285 -1.2062314
14.2415 6.2555418 -1.2489226
13.691652 7.5687776 -1.2573515
14.627747 5.5138979 -1.2562276
14.19098 6.3935957 -1.2498591
14.789033 7.1929712 -1.2183759
14.640275 7.5521507 -1.2208049
13.552333 6.0588045 -1.2774463
13.528497 6.1504078 -1.2790468
14.923392 6.8001151 -1.2143857
13.953358 7.0128498 -1.2547292
13.547694 5.43571 -1.3231225
14.81415 7.0904837 -1.2164676
14.604894 7.6504483 -1.2220194
14.656181 5.4721165 -1.2573515
13.907248 5.4214664 -1.2856482
13.423812 6.3849292 -1.2794468
14.829515 7.155108 -1.2201111
13.765835 5.9989147 -1.2946503
13.36663 6.0331616 -1.3302497
13.180349 6.0487356 -1.3130605
14.621786 7.6008525 -1.2213254
13.482633 5.6571174 -1.3256379
14.902081 6.9037652 -1.2164676
13.786446 5.9564142 -1.2948503
13.548972 5.4857454 -1.3252188
14.838152 7.0447626 -1.2166412
13.807093 7.3518453 -1.2571641
14.280134 6.0860286 -1.2459255
13.493203 6.2369461 -1.2794468
14.502257 6.020164 -1.2627834
13.430174 5.9101367 -1.3310882
13.75538 7.4355974 -1.2566022
13.925935 7.0539398 -1.2541672
14.022493 6.8282075 -1.252856
13.591325 6.0250382 -1.2796469
13.443169 5.7401452 -1.3252188
14.335843 6.0566993 -1.2496718
13.304644 6.638587 -1.2798469
14.103214 6.6224971 -1.2513576
13.683449 7.6204958 -1.2590373
13.64903 7.6575871 -1.2579134
13.406091 5.9498668 -1.3304592
13.733696 7.4797344 -1.2567894
7.0031128 2.373281 -1.7376546
7.6048069 1.1352569 -1.7206413
8.2916079 1.9246998 -1.6986716
8.1277199 1.025034 -1.7056012
7.5194407 1.8974261 -1.7367457
7.8273549 3.1407318 -1.7604446
6.8536668 3.0812747 -1.7684009
7.0392842 2.1537201 -1.7292241
7.5311389 1.5885278 -1.722536
6.5269871 2.2361453 -1.7393529
7.6088815 1.1603401 -1.722536
8.2092543 3.1189055 -1.7572817
6.8873868 1.7498304 -1.7300534
8.0151901 1.8031363 -1.7109088
7.4917064 2.0414066 -1.739114
7.5833306 1.4879917 -1.7301145
7.8185754 1.7573006 -1.7059118
6.9962883 2.4816623 -1.7450932
6.9258966 2.7672489 -1.7540195
6.8868108 2.9032733 -1.7579868
6.6136189 1.7885766 -1.7261025
8.1447659 0.9493162 -1.7073704
6.7347512 2.5378418 -1.7541656
6.9447899 1.4312075 -1.7259492
7.1259866 1.5815667 -1.7133549
6.8182902 2.1611223 -1.7423661
6.9155602 2.8136106 -1.7560031
7.98561 1.9952983 -1.7144469
7.4254904 2.4562914 -1.7528504
6.8595295 1.892705 -1.7326188
6.6303101 1.8153738 -1.7324628
6.9251347 1.4497921 -1.7218451
7.8961005 1.2728983 -1.7022971
7.5190849 1.9225047 -1.7381667
7.7930899 1.8418316 -1.7045563
7.6712251 2.9912374 -1.756968
7.6197758 3.068187 -1.7524498
7.0059857 0.94526154 -1.7203062
7.8802981 1.4232 -1.7045563
8.1205931 1.0500526 -1.7047167
7.9349794 2.3987474 -1.7277156
7.7753839 1.9152 -1.7045563
6.6637096 2.8394432 -1.7664783
6.5784936 3.113869 -1.7757125
7.8978319 1.2986264 -1.7036525
7.8613043 1.5348233 -1.7050079
8.0927505 1.3452883 -1.7082549
6.7661104 2.4530108 -1.7541656
6.5319171 1.4913135 -1.7392776
6.589273 1.2130283 -1.7392776
8.013196 1.8556924 -1.7131201
7.207737 1.1652744 -1.713851
7.5899692 1.3904444 -1.7272725
7.1841836 1.3241724 -1.7148428
6.398284 2.7224765 -1.7541934
6.4568362 1.9743727 -1.7539884
6.5088644 2.3909798 -1.7488934
6.9498734 1.5007447 -1.7310796
7.9003038 2.7035539 -1.7414265
7.2070861 1.1071926 -1.7113714
7.440877 2.3194463 -1.7462188
6.9383793 2.7092793 -1.7515401
7.16855 1.4263442 -1.7158346
6.5384459 1.4712164 -1.7398224
8.11481 1.2183067 -1.7086974
6.3946562 2.2901075 -1.7654305
7.1338873 1.5363634 -1.7128592
6.3883162 2.8134534 -1.7616136
8.2070961 2.6976991 -1.7262777
8.0764542 1.3947625 -1.706486
6.6365652 2.9644821 -1.7731476
7.8351769 1.7093675 -1.707267
7.2095413 1.2820017 -1.7193059
6.9958296 1.2027198 -1.7280014
7.3800087 2.7938955 -1.769902
8.2276106 2.5762017 -1.7224554
6.7651477 2.3926287 -1.7485223
7.0355101 2.2373786 -1.7346791
7.579432 1.3392816 -1.722536
7.7248354 2.4794245 -1.7289548
6.9862337 1.2463062 -1.7274885
8.4038668 1.0645258 -1.6897526
7.9463668 0.92471159 -1.7027489
7.863584 2.871726 -1.7462914
7.9207735 1.136822 -1.7032007
6.8830132 2.9271491 -1.7594746
8.2922125 1.8154119 -1.6935749
7.46522 2.1989489 -1.743377
6.519856 1.6949058 -1.7496297
6.5499501 2.1183505 -1.7351129
6.3723202 1.2409074 -1.7370392
7.4751577 2.1509161 -1.7424296
7.9311228 0.98615289 -1.7009416
6.7947001 2.3313034 -1.7505744
7.4111953 2.5293329 -1.7552184
6.4243069 2.1088374 -1.7567129
6.6248164 1.6693997 -1.7208024
7.6205506 1.1866819 -1.7263253
6.7630634 1.0075376 -1.7223924
6.4487658 1.9940712 -1.7534437
8.0317869 1.66157 -1.7078127
7.417738 2.4796057 -1.7528504
8.2182961 2.6443031 -1.7250036
7.0215702 2.3549244 -1.74063
7.5538626 1.5067887 -1.7239568
7.7806797 1.9424106 -1.707267
7.5379601 1.8141764 -1.7362721
7.905067 2.6774595 -1.7405417
6.7184348 1.1633795 -1.7170924
8.3999338 0.98373032 -1.6867796
7.8420897 3.0611043 -1.7569064
7.4356561 2.5116868 -1.7594814
7.8730483 2.8052549 -1.7431954
7.8337626 1.6319246 -1.7032007
8.2559309 2.4152372 -1.7182081
7.6498289 2.9003146 -1.7447686
8.0375443 1.7287655 -1.7122357
8.0606308 1.4834802 -1.706486
6.399117 2.1900301 -1.7572577
6.6445832 1.5638347 -1.7192123
7.7605143 2.0673606 -1.709978
7.0489597 2.1083541 -1.7282323
7.0077105 2.4609427 -1.7460849
6.4996276 1.7114013 -1.745271
7.9551344 2.2961111 -1.725504
7.9424758 2.3738086 -1.7277156
6.3856592 1.046867 -1.7308726
6.8412127 2.074136 -1.7413402
6.8769498 2.9756854 -1.762946
7.896522 2.7857461 -1.7467339
6.814887 2.1718292 -1.7423661
6.3964105 0.96626145 -1.730312
7.7450414 2.1023929 -1.7086227
7.6829348 2.7484593 -1.7397988
7.6050367 1.2823486 -1.7263253
6.5739031 3.1370356 -1.7772517
6.7673507 0.96476215 -1.7218624
7.7423897 2.2064157 -1.7144961
6.724442 1.0559562 -1.7139122
8.1444464 1.0012015 -1.7086974
6.4696264 1.911775 -1.752354
8.1198215 1.1148806 -1.706486
6.3691831 2.3489299 -1.7643408
6.38346 1.1393434 -1.7347968
7.4740281 2.0617931 -1.7362721
7.4906039 1.8525158 -1.7272725
7.9337463 0.94854492 -1.7004898
7.4419627 2.2429764 -1.7410086
6.9938593 1.1797516 -1.7264624
6.7656302 0.92121369 -1.7197423
6.6867604 2.7997766 -1.7680173
7.1176071 1.6619951 -1.7158346
8.3976593 1.1845623 -1.6918762
6.3511229 2.8449347 -1.7557836
6.5411572 1.4502456 -1.7392776
6.4345546 2.0898483 -1.7578025
7.0848546 1.8432229 -1.7188101
7.3175306 2.9692008 -1.7713227
6.7003384 2.7314794 -1.7644262
6.7280493 1.1867769 -1.7208024
7.099483 1.7048976 -1.713851
6.4525232 2.5443642 -1.7494234
7.0602074 2.0634816 -1.7277364
7.9322462 0.96100521 -1.7004898
6.549345 2.16365 -1.7388232
6.4566379 2.0076683 -1.7567129
7.4068828 2.5538807 -1.7561659
6.6085773 0.99241441 -1.7343739
7.5959277 3.1420839 -1.7538052
7.9348588 2.4259672 -1.7294848
6.6687579 2.8913357 -1.7731476
6.3908134 1.0270959 -1.7314332
7.9292035 1.0618696 -1.7027489
7.7633958 2.0942364 -1.7122372
6.9551926 1.3084524 -1.7223582
6.3383932 2.4628479 -1.7676098
6.5506039 2.1412849 -1.7372328
8.2061939 3.0883174 -1.7543087
8.2836142 1.9503034 -1.6982466
7.2879992 2.9437633 -1.7623234
6.6992259 1.2796435 -1.7176223
7.634335 0.93204302 -1.721115
8.3753662 1.5731912 -1.7007952
6.6109657 1.0886165 -1.7392776
6.4411316 2.0250204 -1.7539884
6.9583325 1.4797195 -1.7321055
8.2337942 2.5497706 -1.7220306
6.4534712 2.5681536 -1.7520735
6.4915371 1.7858708 -1.74854
8.4021835 1.0777324 -1.6897526
7.1037593 1.8242843 -1.7222815
7.2296896 0.94844496 -1.7113714
7.1556482 1.4705912 -1.7148428
6.8685861 1.8372536 -1.7310796
6.3517222 2.4336486 -1.7681547
6.6370478 1.6281967 -1.7213324
6.548892 1.3873154 -1.737643
6.9090734 1.6287684 -1.7280014
6.7353539 1.0359703 -1.7160321
6.6111298 1.0140671 -1.7360085
7.0197272 2.3298357 -1.7381505
7.0443892 2.0829401 -1.7252569
6.6173396 1.7673012 -1.7255725
6.9625034 1.4121222 -1.7295406
7.8483996 1.6092335 -1.70546
6.4457264 2.0487905 -1.7572577
6.3435512 2.9497609 -1.765854
7.6716495 2.9360759 -1.7524498
7.2133627 1.0386779 -1.7103795
6.8648815 1.9874631 -1.7408272
8.3338385 1.7423043 -1.6990962
7.6187019 1.2109326 -1.7267989
6.7214828 1.0987942 -1.714972
7.2146711 1.0157495 -1.7098836
6.5111036 2.3224757 -1.7430631
6.7762752 2.3726559 -1.7495484
7.6456661 0.98227906 -1.7253779
6.9076796 1.6513773 -1.7290275
7.4849591 2.0142834 -1.7357984
6.5847082 1.8922414 -1.7261025
6.598309 1.1291375 -1.737643
6.6154685 0.97222048 -1.7354636
6.937808 2.6840062 -1.7490604
6.9563508 2.6410394 -1.7495564
8.2236013 3.0360274 -1.7538842
7.0107555 1.0358318 -1.7249234
8.3624249 1.4352771 -1.6927255
7.0898776 1.951826 -1.7272404
7.7399554 2.2847421 -1.7190145
7.8393369 3.0033329 -1.751599
6.9462085 2.6621916 -1.7490604
6.4683843 2.5037682 -1.7494234
6.6022491 1.8300992 -1.7261025
6.9979954 0.98898554 -1.7197931
6.9309473 2.7440646 -1.7530278
6.4700656 1.889802 -1.7507194
7.9497528 2.3216424 -1.7259464
7.6275158 0.95552623 -1.7201676
6.5616765 1.3255302 -1.737643
6.7493262 0.94065034 -1.7160321
8.3726072 1.2079322 -1.6872041
8.204896 3.1467621 -1.7585559
7.2985711 3.0960078 -1.7789012
7.3190327 2.8763764 -1.7632706
7.1921239 1.3022745 -1.7158346
6.7239594 1.1425811 -1.7176223
8.4117775 0.93155944 -1.6880537
6.6952939 2.7539976 -1.7654521
6.5351882 2.181798 -1.7367028
6.6826172 1.3637234 -1.7176223
7.8580537 2.9540133 -1.751599
7.9315877 2.5344791 -1.736119
6.8758268 1.8624099 -1.7346706
7.3683081 2.7365532 -1.7623234
6.4744186 1.8469684 -1.74854
7.223947 1.0865163 -1.7148428
6.3491936 2.8680243 -1.7579036
6.47648 1.9359968 -1.7561679
7.1328149 1.5595804 -1.713851
7.5244541 1.7359594 -1.7286935
7.8962326 1.2347927 -1.7009416
7.1742706 1.3456899 -1.7133549
7.8088298 1.7294067 -1.7022971
7.4107389 2.6600056 -1.7656391
6.6528325 1.4668889 -1.7155021
6.5539002 1.4099416 -1.7403673
6.4958892 2.4094231 -1.7473031
6.8135438 2.195025 -1.7439052
7.0268488 2.283314 -1.7361668
8.2247009 2.6178784 -1.724579
7.1072798 1.7303563 -1.7173223
6.7051826 1.2480557 -1.7176223
6.5980496 1.8736229 -1.7282226
7.9376535 2.5089564 -1.7356768
6.6533885 1.6100148 -1.7245126
6.3868666 1.1089243 -1.7342362
7.8967652 1.3749739 -1.7063634
7.0068092 0.96780849 -1.7213321
7.8468814 1.557653 -1.7027489
7.9286346 1.0364592 -1.7018452
8.0401554 1.6106864 -1.7073704
7.7908354 1.893034 -1.7068152
8.27876 2.0454283 -1.7020692
8.2103548 3.0604916 -1.7530347
6.75283 0.9843908 -1.7186823
7.1285505 1.6056205 -1.7153387
6.4150667 2.1730392 -1.759982
6.4915519 1.7639284 -1.7469054
6.5816174 1.1688546 -1.7349188
8.0051689 1.9069206 -1.7140046
6.5018249 2.3653011 -1.744653
6.6214471 0.93063474 -1.7354636
6.9975309 1.1577753 -1.7264624
6.8720007 2.9479992 -1.7589786
6.9917145 1.1455047 -1.7244103
7.5605097 1.5328664 -1.7267989
8.0607243 1.5359535 -1.7086974
8.216507 2.7867527 -1.7343472
6.7511201 2.4715691 -1.7521136
7.9133058 1.1611457 -1.7022971
7.0802755 1.9134011 -1.7222815
7.5001755 1.780014 -1.7253779
6.4049191 2.2145751 -1.7610716
6.5300798 1.5666955 -1.7436364
7.3657575 2.8149664 -1.768481
6.5756598 1.2747051 -1.7387328
8.398756 1.1041216 -1.6897526
8.3383818 1.661428 -1.6965479
6.7008557 1.3017637 -1.7192123
7.014668 0.92402339 -1.7218451
6.3820071 2.3082061 -1.763796
7.6262717 1.2613635 -1.7305881
8.2705288 1.9884127 -1.6973972
7.8808904 1.3977698 -1.7036525
7.1490941 1.4926767 -1.7143469
7.3720112 2.6984258 -1.759955
7.3833666 2.5977654 -1.7542711
7.8662548 2.8586996 -1.7458493
8.1339998 0.97394532 -1.7056012
7.1751909 1.3925495 -1.7158346
8.0623884 1.5888696 -1.7113509
6.5917382 3.0948408 -1.7767386
8.0711679 1.5642852 -1.7122357
6.4389977 2.6093688 -1.7526035
6.3865013 2.7887807 -1.7584335
8.4013395 1.1581722 -1.6918762
6.3493295 1.2779487 -1.7325544
6.708003 2.7839854 -1.7716084
7.9415193 1.0127441 -1.7041043
8.3734398 1.3695513 -1.6927255
7.7669706 2.0429678 -1.709978
6.5283027 2.2023165 -1.7367028
7.3805127 2.7147391 -1.7632706
7.6890087 2.6962981 -1.7370875
7.2059889 1.2347543 -1.7163304
7.684175 2.7217314 -1.7379912
7.9787531 2.1005147 -1.7188698
6.5522661 2.2217543 -1.744653
6.8636651 1.9637308 -1.7387748
6.3632908 2.392323 -1.767065
7.0944166 1.7982011 -1.7183141
8.2597218 2.3882117 -1.7173587
6.6649528 1.4475911 -1.7176223
6.9078374 1.7320017 -1.7341578
8.3182011 1.7118428 -1.6944243
6.5736494 1.2850318 -1.7387328
6.6242018 0.9522745 -1.7370982
7.4657154 2.2246373 -1.7452716
8.1050682 1.2689619 -1.7082549
6.7033939 1.2042352 -1.714972
7.8684497 1.4977629 -1.7050079
6.8018937 2.2860746 -1.7485223
6.3940077 1.0070148 -1.7314332
7.7940087 1.777583 -1.7013936
7.5366683 1.8766501 -1.7395877
6.5760121 3.0370259 -1.7664783
8.0111208 1.8817598 -1.7140046
8.2403479 2.5943537 -1.7262777
7.6914926 2.6295822 -1.7325695
6.6198015 1.7124227 -1.7223924
7.7171097 2.5842667 -1.7348284
6.3914447 0.98606825 -1.7297515
7.8342476 3.0864449 -1.7573487
6.5146294 2.2777443 -1.7398828
6.6626248 1.5459516 -1.7229224
6.9811511 2.5010431 -1.7431096
8.2978125 1.871295 -1.6973972
7.45718 2.1710913 -1.7395877
8.3937273 1.5493152 -1.7037681
6.9600801 2.592592 -1.7460849
7.968348 2.1245561 -1.7179854
7.1833386 1.3707151 -1.7168264
7.5185108 1.7096901 -1.7258517
7.8419485 1.6593093 -1.7063634
7.9146547 1.110608 -1.7009416
7.4369984 2.2925851 -1.743377
8.4165802 0.95884466 -1.6897526
7.6696658 2.9629462 -1.754257
6.4301672 2.6765478 -1.7573736
6.6795831 1.4068525 -1.7192123
6.6153488 3.0301454 -1.7751997
7.6021523 3.1167326 -1.7529012
7.0084682 2.3996203 -1.7411258
8.1418972 0.92304415 -1.7060437
7.8563395 2.9251955 -1.7489452
6.3723974 1.1787435 -1.7336756
7.7403836 2.3377879 -1.7226293
6.4242611 2.6505041 -1.7531334
7.0881248 1.8916427 -1.7227772
6.8359356 3.1250765 -1.7688968
6.928144 1.5187819 -1.7264624
8.3422785 1.6213843 -1.6956985
7.9115939 2.6519802 -1.7400995
7.280755 3.1425815 -1.7793751
8.3622551 1.3408121 -1.6893277
6.6770167 1.4282281 -1.7197423
6.599678 3.0732956 -1.7762256
8.2779827 2.0728359 -1.7033433
7.4650254 2.352844 -1.7542711
7.5713654 1.3623875 -1.7215887
6.5942569 1.9961742 -1.7367028
7.7217841 2.3985081 -1.7226293
8.3597021 1.380826 -1.6901771
7.4281487 2.5874598 -1.7637442
8.1070242 1.1910709 -1.7060437
8.2288036 2.9065602 -1.7453898
7.6384358 3.0478163 -1.754709
6.3577332 2.895884 -1.7632039
7.7489686 2.2609527 -1.7194666
6.4896345 1.7415032 -1.7447261
6.6010642 1.0656418 -1.7354636
6.3863716 2.7649007 -1.7557836
7.0314021 2.2118173 -1.7317038
7.720715 2.5048769 -1.7298584
6.3665061 1.260554 -1.7364786
8.3687716 1.2342281 -1.6872041
7.9736395 2.1797836 -1.7224081
6.8509068 3.0542464 -1.7649297
7.804533 1.8186492 -1.7059118
6.6868687 1.3427207 -1.7176223
8.0693417 1.5113542 -1.709582
6.5065284 1.6695579 -1.7441813
6.6176686 1.6897323 -1.7202722
8.2632999 2.207592 -1.7075905
8.1029682 1.2947309 -1.7086974
7.946157 2.3477297 -1.7268312
8.2157316 2.8730202 -1.7402931
6.3945742 2.2674077 -1.7632509
7.928473 2.5885429 -1.739215
6.3943019 2.2334018 -1.759982
7.8603435 1.5090369 -1.7036525
7.9683356 2.070971 -1.7148894
6.3377538 1.2963825 -1.730312
6.9803824 1.267894 -1.7269754
7.3604975 2.839505 -1.7694283
7.8681183 1.4465678 -1.7027489
7.543777 1.6408489 -1.7282199
6.4056993 2.6900768 -1.7526035
6.5824156 2.0152068 -1.7351129
7.7361441 2.1784294 -1.7113334
6.3856564 1.2018838 -1.7387209
6.6707158 2.86729 -1.7710955
7.725781 2.5333261 -1.7330211
6.4979339 1.7328167 -1.7463607
6.8646288 3.0088284 -1.7634418
7.2234898 1.063267 -1.713851
8.2196579 2.7590747 -1.7330732
7.3551574 2.8640351 -1.7703755
6.6239719 2.9213808 -1.7654521
6.7836957 2.3513572 -1.7495484
8.2388363 2.9829726 -1.7530347
8.1348782 1.0909597 -1.7091397
6.3694863 1.0853913 -1.7280697
6.9109282 1.5605521 -1.7244103
7.0791306 1.9250282 -1.7227772
7.987772 1.929275 -1.7113509
7.2951441 3.0136206 -1.7703755
7.9217353 2.6277332 -1.7405417
7.6181703 1.0273703 -1.7201676
8.3562212 1.515397 -1.6944243
6.5274858 1.5443729 -1.741457
6.9120717 2.8375099 -1.7574909
7.3027797 2.9899468 -1.769902
6.9050765 1.662225 -1.7290275
7.8715296 2.8326421 -1.7449648
7.0383177 2.1897113 -1.7317038
8.2501793 2.4417138 -1.7186331
6.7124648 2.7118783 -1.7654521
7.8750324 1.4733902 -1.70546
6.6580577 1.4789809 -1.7176223
6.5986805 1.0439756 -1.7338291
6.8762565 1.7930708 -1.7300534
6.7517352 2.5200818 -1.7567308
8.3933086 1.1302452 -1.6893277
7.110764 1.648659 -1.7133549
7.7348738 2.3759332 -1.7239848
6.3666182 1.1570408 -1.7308726
8.0729227 1.4595593 -1.7082549
6.9766607 1.380821 -1.7315927
6.9620037 1.3551347 -1.7264624
8.2312584 3.0095127 -1.7534593
8.2251606 2.9343495 -1.746664
6.6393933 1.6508712 -1.7234523
7.1963439 1.2564093 -1.7148428
8.1269178 1.0768691 -1.706928
7.2098317 1.2121115 -1.7163304
6.8541102 2.0311103 -1.7413402
6.6764107 1.3843251 -1.7170924
6.7465286 2.4218481 -1.7464702
6.7411804 2.5645366 -1.7582698
6.5309453 1.5127147 -1.7403673
7.0117474 1.0810643 -1.7269754
8.2704782 2.12625 -1.7046175
6.5112939 1.6272244 -1.7425467
6.5128584 2.3461552 -1.7457132
7.8703036 1.3450055 -1.6991343
7.9549856 2.2825258 -1.7246196
6.541925 1.4288543 -1.7381878
7.4814754 2.1145918 -1.7414823
6.902226 1.5813806 -1.7233841
8.2211113 2.6737003 -1.7275519
7.6642437 2.8508482 -1.7438653
6.5961337 1.1074259 -1.7360085
7.0685177 2.0418241 -1.7282323
7.3658547 2.669908 -1.7561659
7.2150631 1.1315879 -1.7143469
7.0010018 1.1244692 -1.7259492
8.0892401 1.3185797 -1.706486
8.3093452 1.7917907 -1.6961232
6.9844055 1.2233319 -1.7259492
6.9725881 2.5474918 -1.7450932
7.0756083 1.9958122 -1.7267447
7.4279256 2.3924763 -1.7485871
6.8623099 2.010119 -1.741853
6.9048486 2.8853288 -1.7604663
7.0131989 1.058737 -1.7264624
7.6078811 1.001611 -1.7168519
7.9479709 2.1995599 -1.7179854
6.3458385 2.4542909 -1.7686995
6.5042868 1.6471913 -1.7420019
6.9989161 2.4332483 -1.7416219
6.6184187 2.9813204 -1.7705824
7.3279972 2.9065809 -1.7680072
6.7922816 2.2353489 -1.741853
6.8038201 2.3105721 -1.7510874
8.2321148 2.8497291 -1.7419924
6.8402019 2.097337 -1.7428792
6.6940742 2.6798985 -1.7577569
6.9880624 2.4172363 -1.7376546
7.6214023 1.0888588 -1.7230096
6.5248156 1.5220821 -1.7392776
7.6960192 2.6041698 -1.7316656
6.7353539 2.6597891 -1.7659652
6.9700122 2.5713758 -1.746581
6.8243227 3.1457305 -1.7684009
7.2266803 1.144994 -1.7178181
6.8495445 2.0531969 -1.741853
6.3653736 2.3702834 -1.7654305
6.7274971 2.63222 -1.761348
6.8615899 2.9818869 -1.7599704
7.5997796 1.0613316 -1.7168519
6.570519 2.0341849 -1.7335227
7.7199454 2.3581498 -1.7194666
7.9402299 2.4549592 -1.7325808
7.5469289 1.5795279 -1.7258517
8.3683577 1.3148339 -1.6897526
7.7335482 2.2301936 -1.7140446
7.4446526 2.3721108 -1.7509556
6.3441043 2.9985547 -1.7716839
7.5880237 1.2304152 -1.7201676
6.3861284 1.0675396 -1.7319938
7.5054913 1.9441416 -1.7362721
7.2892218 3.038033 -1.7713227
7.4044285 2.6314583 -1.7618496
7.0302935 2.2600558 -1.735175
8.4052296 1.037887 -1.6893277
8.0225534 1.7518952 -1.7100241
6.5676942 1.3052934 -1.7381878
6.4397082 2.6331999 -1.7552537
7.7235136 2.4256418 -1.7248884
6.7559981 2.4975028 -1.7557046
6.6387868 2.9404626 -1.7710955
7.9028215 2.7322171 -1.7440802
8.2756433 2.0171261 -1.6999456
6.4003501 2.7470868 -1.7573736
8.0736303 1.4334979 -1.7073704
7.6746764 2.7999842 -1.7420577
6.3464036 1.3396764 -1.7353574
7.0497284 2.1327052 -1.7302159
6.4319401 2.0666461 -1.7550783
6.9049168 2.8599446 -1.7579868
6.9047494 1.6048335 -1.7254364
8.1090164 1.2434905 -1.7082549
7.643012 0.90876222 -1.722536
6.6542788 1.5220511 -1.7192123
6.9627967 2.6184978 -1.7490604
8.1126566 1.1658775 -1.706486
6.5147252 2.30074 -1.7420031
7.4931273 1.9912621 -1.7362721
7.0818429 1.9735754 -1.7267447
6.5640965 2.0548153 -1.7335227
8.3783855 1.2625126 -1.6901771
6.399415 0.94615996 -1.730312
7.5106125 1.9707099 -1.739114
6.9365358 1.5435257 -1.7300534
8.2317724 2.8207145 -1.7398688
8.0341568 1.6884294 -1.709582
7.9115472 1.1862811 -1.7027489
7.7978816 1.8042234 -1.7036525
7.6300182 1.0412203 -1.7234833
7.6683326 3.0039914 -1.7574197
8.011384 1.8287503 -1.7113509
8.2492466 2.5261588 -1.7237296
7.4404507 2.2680621 -1.7424296
6.597384 1.985814 -1.7367028
7.909687 1.2495761 -1.7045563
7.1161256 1.6852256 -1.7168264
6.5906391 1.9612718 -1.7329928
7.7515612 2.1302848 -1.7117854
6.3738914 1.1273546 -1.7314332
7.015954 2.3041842 -1.735175
6.4877472 1.8067782 -1.7490848
7.9616628 2.2303731 -1.7228504
6.6135249 1.7440814 -1.7229224
7.9766912 2.0464201 -1.7153317
7.7702107 1.9917377 -1.7077191
7.1748981 1.4041831 -1.7163304
6.358263 2.8241935 -1.7552537
7.88868 2.7550826 -1.7427533
8.1162806 1.1403826 -1.706486
7.7458205 2.3129053 -1.7221773
8.3313875 1.6464638 -1.6944243
6.966867 1.2880272 -1.7244103
7.8975601 1.3240622 -1.7045563
7.3188291 2.9295907 -1.7680072
6.7204022 2.6660495 -1.762887
7.8432717 2.9765911 -1.7502722
6.5966239 1.1501977 -1.7381878
6.9842048 2.5268812 -1.7460849
6.638422 2.9029005 -1.7669913
7.1055751 1.7535897 -1.7183141
7.0655723 2.0169826 -1.7257527
7.5132918 1.7582406 -1.7272725
7.3687596 2.7631271 -1.7646916
6.5986195 1.9410955 -1.7335227
8.0372143 1.7022772 -1.7109088
6.4109297 2.1491611 -1.7567129
6.5163746 1.6067587 -1.7425467
7.223588 0.99385214 -1.7113714
6.8409567 2.1211314 -1.7449312
7.7429519 2.1541088 -1.7113334
8.3705139 1.2882477 -1.6893277
7.8245115 3.1110437 -1.7573487
8.257369 2.3035133 -1.7118376
7.7915516 1.9710922 -1.7113334
6.5650139 1.3477169 -1.7398224
6.6796942 1.319509 -1.7144423
7.8400397 1.5819168 -1.7022971
7.6658397 2.8240869 -1.7420577
6.8551431 3.0303781 -1.7634418
6.8324151 2.1420324 -1.7444181
6.3543429 1.3204994 -1.7364786
7.6407161 3.0209596 -1.7529012
8.2869577 1.978556 -1.7003703
8.2279072 2.9498813 -1.7483628
7.6926069 2.7791421 -1.7443168
6.4194727 2.1296241 -1.7572577
7.0436015 2.1792195 -1.7321995
8.3415699 1.5940831 -1.6944243
6.6646762 1.5023907 -1.7208024
6.4346189 2.5841417 -1.7488934
6.810287 2.2176285 -1.7449312
8.275116 2.1551414 -1.7071658
6.7267332 2.6075473 -1.7587829
8.2733269 2.099309 -1.7037681
6.5254016 2.2585156 -1.740943
8.3055592 1.8456373 -1.6978222
6.8660851 1.9410908 -1.7377489
8.3273706 1.6864678 -1.6952736
7.9258289 1.0867732 -1.7027489
6.9189677 2.7897139 -1.7545155
8.3111057 1.7648784 -1.6952736
6.7290354 1.0134073 -1.7133822
7.9930305 1.9571773 -1.7140046
6.6975231 1.2575399 -1.7160321
6.5195227 1.5858152 -1.7420019
7.9527421 2.2548349 -1.7224081
6.4955211 2.4324989 -1.7494234
7.0139761 1.0137998 -1.7249234
7.4462118 2.4243059 -1.7552184
6.8851213 1.7032263 -1.7264624
6.9911404 1.1003178 -1.7223582
7.1526303 1.4465958 -1.7128592
6.6761532 2.8200128 -1.7675042
6.4726119 2.4820688 -1.7483634
7.9336538 2.6040633 -1.7414265
7.2852416 3.1173799 -1.777954
7.9906368 2.0232902 -1.7171006
6.4806223 2.450191 -1.7473031
7.8581786 2.8977795 -1.7471762
6.8702888 1.9189856 -1.737236
6.7210917 1.077075 -1.7139122
7.6662068 2.8789854 -1.7465758
7.4368591 2.4341743 -1.7537975
6.4722061 1.9568998 -1.7567129
6.5805855 1.9134485 -1.7266325
7.5971432 1.3055615 -1.7253779
6.5565724 2.0977643 -1.7351129
6.5816503 1.2329985 -1.7381878
8.3109579 1.9016538 -1.7016445
6.9814043 1.3362204 -1.7305667
8.2609758 2.2905405 -1.7118376
6.6995783 1.2252873 -1.714972
8.0284262 1.7796572 -1.712678
6.3611341 2.4143698 -1.7686995
8.2521362 2.3580029 -1.7139612
6.8108749 2.2653127 -1.7490354
7.546021 1.4559216 -1.7196939
6.4078884 2.7146604 -1.7557836
7.5347371 1.5522258 -1.7215887
7.1405754 1.5143371 -1.7133549
7.4974303 2.0937238 -1.7438506
6.7294183 1.1217625 -1.7181523
6.6224318 0.90956044 -1.7349188
6.4765015 2.471899 -1.7483634
6.9628201 1.4007895 -1.7290275
7.7214317 2.4516437 -1.7262436
8.2676544 2.2365668 -1.7101388
7.5754747 1.6229308 -1.734851
6.5834093 1.2547772 -1.7398224
7.6173282 3.0950189 -1.754257
7.7601399 2.0151737 -1.7068152
6.5557675 2.0748539 -1.7329928
7.1159096 1.6263062 -1.7133549
7.6237092 1.1136589 -1.7244306
8.3533945 1.4067699 -1.6897526
6.6160488 3.0053196 -1.7726345
7.5181613 1.6847655 -1.7244306
6.4857388 1.8282084 -1.7501746
6.5798059 1.1898741 -1.7354636
6.4042563 0.92631942 -1.7308726
8.2537117 2.470948 -1.7211813
8.0369663 1.6363307 -1.7078127
8.2758694 2.1831012 -1.7088648
6.464891 1.8662196 -1.7474505
7.9306178 2.4793026 -1.7321385
7.7986398 1.8689988 -1.707267
6.5532179 1.3667359 -1.737643
6.649025 1.5869029 -1.7218624
8.4278603 1.0137523 -1.6935749
6.6255941 1.7361001 -1.7255725
8.2643604 2.2635493 -1.7109882
7.9020014 1.2102628 -1.7013936
7.2170682 0.969899 -1.708892
6.4586854 2.5233867 -1.7488934
7.5721998 1.4117463 -1.7239568
7.72334 2.5594044 -1.7343768
7.2268648 0.92501146 -1.7098836
7.7006006 2.6867611 -1.7388948
7.3082609 3.0730648 -1.7789012
7.8271651 1.681924 -1.7041043
6.7739587 2.4197872 -1.7531395
6.3801398 2.3302445 -1.7654305
8.2440367 2.4963028 -1.7207566
8.3590174 1.4887984 -1.6939996
8.261385 2.3325934 -1.7143857
6.8624935 1.8819284 -1.7326188
7.5171351 1.8341118 -1.7324828
8.0723324 1.4071053 -1.7060437
8.0865602 1.3703802 -1.7078127
6.3554306 1.2169918 -1.7308726
7.4673276 2.1359286 -1.7395877
7.8498502 3.0357451 -1.7564641
6.8799853 1.7709724 -1.7295406
6.6243482 1.8585392 -1.7340527
7.931004 2.5618081 -1.7378882
6.8315802 3.0972354 -1.7649297
8.3520966 1.4605474 -1.6914513
6.7366948 2.5870993 -1.7592959
7.6905675 2.6562557 -1.7343768
6.603828 1.0235436 -1.7343739
6.3907862 2.2434423 -1.759982
6.9286962 2.71807 -1.7500523
7.5969963 1.317835 -1.7258517
7.967278 2.1511242 -1.7193121
7.2136045 1.1894531 -1.7163304
7.0921578 1.8688796 -1.7222815
6.8687234 1.8141627 -1.7295406
7.5461688 1.6662438 -1.7301145
7.1000309 1.7759024 -1.7183141
7.5658202 1.435158 -1.7234833
6.8979435 1.6834499 -1.7285144
7.9861627 1.968784 -1.7131201
8.2245731 2.7320147 -1.7322239
11.880108 3.9551885 -1.406508
12.475205 3.2565775 -1.3747439
11.011942 4.7384458 -1.4768308
11.562314 3.4053783 -1.4230275
10.951241 3.2346144 -1.4522921
12.264927 4.3406425 -1.3892028
12.946168 3.344636 -1.3577864
11.871383 3.9937627 -1.4070225
11.932089 3.5805523 -1.3982749
11.504271 3.7847269 -1.4308536
11.007418 4.4721413 -1.4617047
10.935421 3.3422744 -1.4546099
12.920573 3.5336452 -1.3605927
12.948583 3.3669808 -1.3587217
11.29271 4.7051239 -1.4475851
12.724259 4.5350838 -1.3739228
11.848286 4.1943893 -1.4126825
10.852485 3.7504938 -1.4615628
11.248755 3.2999046 -1.4392958
11.265309 3.17061 -1.4364945
11.099781 4.1082745 -1.4552622
12.815966 3.9637582 -1.3629314
10.959442 4.6749344 -1.4664668
11.261002 3.2076349 -1.4373349
12.268065 4.3851299 -1.3914083
11.934059 3.6220784 -1.4000759
12.143577 4.8862472 -1.3990054
11.387693 4.2486167 -1.4367906
13.067945 4.3615699 -1.3344865
12.788872 3.5405986 -1.3458594
12.412474 3.6178875 -1.379155
12.362441 3.7512834 -1.3779298
10.900492 3.6524239 -1.4635907
11.460087 3.9103482 -1.4305838
11.419649 4.0978622 -1.433822
12.13737 4.9280858 -1.4002306
12.120263 5.0993719 -1.4063572
10.881463 3.6841278 -1.4624319
11.846321 4.1100512 -1.4088233
12.716034 4.6224475 -1.3764954
11.676361 4.8927641 -1.4245174
11.361982 4.300137 -1.435981
11.573449 3.3101428 -1.4208686
11.109722 4.0525122 -1.4538616
10.968526 4.5975223 -1.4633855
12.886073 5.3627911 -1.3548415
12.684915 4.7469893 -1.3781325
10.8819 5.1142859 -1.481873
11.232304 3.410414 -1.4415365
11.436206 4.0632825 -1.4343618
12.379727 3.7352788 -1.3794003
10.893641 4.9328537 -1.4726292
12.132858 4.9706831 -1.401701
11.686183 4.8537669 -1.4237456
11.584828 5.3987322 -1.4402113
11.260378 3.2457578 -1.4387355
11.561088 3.3459363 -1.4205987
12.105056 5.0483394 -1.4021912
10.855606 3.789757 -1.4638805
10.902645 4.9990573 -1.4776713
11.060568 4.212708 -1.4552622
11.557722 3.3646412 -1.4208686
12.701447 4.6623769 -1.3764954
11.939477 3.5419152 -1.3977602
12.837846 3.9264011 -1.3641007
12.452449 3.4183025 -1.3771945
12.852711 4.0195074 -1.3690118
12.417768 3.5349755 -1.3769495
12.149642 4.8444176 -1.3977801
11.597317 5.2719913 -1.4348085
12.96982 3.1773999 -1.3556815
11.572342 3.270555 -1.4192494
11.588841 3.196733 -1.4187098
11.807662 4.3477707 -1.4144835
13.063601 4.4057579 -1.3356049
10.957673 4.6335058 -1.4639456
10.860264 5.1876974 -1.4835536
12.704346 4.57301 -1.3732213
12.39152 3.6540804 -1.3779298
10.903668 4.8961625 -1.4717888
10.993541 4.5269918 -1.4628253
12.304751 4.3112173 -1.3926337
11.751104 4.816021 -1.4296629
12.933988 5.1930676 -1.3526046
12.754374 4.4557085 -1.3741567
12.437822 3.4563479 -1.3767045
11.075599 4.1786451 -1.4555423
12.746168 4.2960563 -1.3671409
11.706613 4.8407369 -1.4255466
12.8716 5.3094525 -1.3510389
11.453368 3.9482605 -1.4313934
11.44143 4.0247221 -1.4332824
10.871017 5.0674682 -1.4776713
12.742188 4.496419 -1.3743906
12.222464 4.4991922 -1.3909183
12.937359 3.4945979 -1.3612943
11.476904 3.8357735 -1.4295043
11.230053 4.7621355 -1.4427277
11.289103 4.6621013 -1.4448866
11.226951 3.3318193 -1.437615
12.877169 5.2644997 -1.3496969
12.684877 4.7015605 -1.3762616
11.861048 4.0734644 -1.4090805
10.881498 5.0307775 -1.4768308
11.658151 4.9714999 -1.4263184
12.94252 3.4523928 -1.3605927
12.400876 3.5723307 -1.3762144
11.069441 4.2560086 -1.4586235
11.457282 3.8692882 -1.4284248
11.972644 3.4496884 -1.3985322
12.684672 4.8152108 -1.3809388
11.475387 3.8152573 -1.4284248
12.761964 4.3237629 -1.3699473
11.452145 3.9881127 -1.4330125
11.915043 3.6572063 -1.3990467
12.242802 4.6600003 -1.4002306
12.116985 5.1428246 -1.4080727
13.055344 4.4486861 -1.3362758
13.029527 4.4627824 -1.3340392
12.246755 4.4209657 -1.3904281
11.607717 5.3208489 -1.4386678
11.855486 3.7614887 -1.3957021
12.203251 4.5793681 -1.3921435
11.83896 4.1492238 -1.409595
11.225904 3.3699446 -1.4390156
10.951147 3.1785975 -1.4499744
10.877328 3.7208378 -1.4635907
12.196238 4.6204796 -1.3931237
11.61299 5.2132053 -1.4335222
11.006128 4.5119839 -1.4636656
10.981091 4.5622687 -1.4631054
12.13265 5.1719222 -1.4112585
12.464086 3.337451 -1.3759692
12.238406 4.4614444 -1.3911632
11.319852 4.571085 -1.4440769
11.107059 4.0713286 -1.4544219
12.225029 4.543756 -1.3931237
12.423079 3.4943421 -1.3762144
11.958018 3.7529233 -1.4080515
11.87754 4.0374632 -1.409595
11.886827 3.9159758 -1.405736
11.813819 4.3079123 -1.4134545
12.769136 4.2146378 -1.3666732
10.902517 3.6150601 -1.4621422
11.600167 5.2513037 -1.4340367
11.28724 4.640615 -1.4435372
11.578742 3.2331223 -1.4187098
11.402847 4.2134948 -1.4370605
12.383787 3.6941164 -1.3784199
11.260967 3.2651072 -1.4395758
11.973166 3.4906366 -1.4000759
11.916744 3.6987672 -1.4008477
11.019576 4.4367967 -1.4614247
12.765248 4.2578902 -1.3678424
12.443635 3.8184474 -1.3899379
11.660933 4.9294205 -1.4245174
10.843909 5.2217937 -1.4835536
11.136948 3.4578516 -1.4306121
10.940001 3.3812563 -1.4569275
11.574751 5.3497763 -1.4363523
11.790009 4.2572298 -1.4083087
11.39772 4.2727237 -1.4392195
10.87451 3.398612 -1.4485259
11.328633 4.5332994 -1.4432673
13.077806 4.3192511 -1.3340392
11.219643 3.445097 -1.4412565
10.855833 3.8664672 -1.4676467
12.131869 5.0148158 -1.4036616
12.0844 5.3771257 -1.4159148
10.942924 3.2695632 -1.4525819
11.812656 4.2235289 -1.409595
11.408586 4.134387 -1.434092
10.919465 3.5826311 -1.4630114
12.472593 3.297765 -1.3757242
11.963862 3.5083144 -1.3995612
12.88996 5.2225294 -1.3492494
10.863993 5.1475935 -1.4815929
11.372503 4.3449521 -1.4394892
12.966928 3.2632194 -1.3577864
12.773273 4.8950357 -1.394035
11.303598 4.6058788 -1.443807
11.081256 4.1410418 -1.4544219
12.449708 3.3755584 -1.3754791
12.486072 3.238461 -1.3754791
12.975189 3.2219875 -1.3575525
12.977776 3.3093779 -1.360359
12.013026 3.1768932 -1.3941584
12.949461 3.4106984 -1.3601249
11.404853 4.1735907 -1.4354413
10.949943 3.1968949 -1.450554
10.934493 3.3044913 -1.4528716
12.662513 4.7839918 -1.3771969
12.75583 4.3664203 -1.3708826
10.900285 4.9565473 -1.4748701
12.755177 4.4110513 -1.3725197
17.497673 5.9657092 -1.0749428
16.198582 5.5286798 -1.1730525
16.250004 5.4325128 -1.1745057
17.322353 5.9665041 -1.0634141
16.146601 5.7385025 -1.1746671
15.43342 5.5342579 -1.2140386
15.433825 5.4797683 -1.2124772
16.777763 5.6527338 -1.1371586
16.745199 5.9361396 -1.1418718
15.414663 5.6096339 -1.2147326
16.544327 5.9824796 -1.128644
16.884489 5.4240913 -1.1394391
16.384884 5.9833283 -1.1172408
15.362979 5.7553573 -1.2149062
16.117718 5.8425703 -1.1753128
