# .PCD v0.7 - Point Cloud Data file format
VERSION 0.7
FIELDS x y z
SIZE 4 4 4
TYPE F F F
COUNT 1 1 1
WIDTH 1507
HEIGHT 1
VIEWPOINT 0 0 0 1 0 0 0
POINTS 1507
DATA ascii
-1.5190594 4.1659145 -1.6627095
-2.4515462 4.3638983 -1.6403223
-2.6969075 4.4465699 -1.6199571
-1.850328 3.9028587 -1.6572511
-2.5855095 3.7861891 -1.6749213
-1.0332294 3.9200692 -1.6718574
-2.9643664 3.7611647 -1.6726799
-2.5534668 4.5413184 -1.6232026
-2.0835567 4.1245756 -1.6562384
-2.8662829 3.5035319 -1.7009612
-2.6757679 4.4747581 -1.6245005
-1.0825713 4.3768101 -1.6442864
-1.1066257 3.9345996 -1.64586
-1.0948373 4.0411839 -1.6435536
-2.8077891 3.8656182 -1.6683719
-2.054327 4.1309047 -1.6532971
-1.081387 3.9397168 -1.645045
-2.4442985 4.3830452 -1.6450758
-1.3675925 4.2180657 -1.6627095
-1.5782576 4.4521289 -1.6475496
-1.804958 4.1640244 -1.6562414
-3.000371 3.2262759 -1.6939492
-0.9660213 4.5970592 -1.6374974
-1.0989419 4.4290099 -1.6334431
-2.3940194 3.3613269 -1.7050781
-1.1416297 3.8822975 -1.6685351
-1.4420801 4.2914405 -1.6517583
-2.8311574 4.0215573 -1.6620027
-2.0951188 4.0425701 -1.6622189
-2.3340578 3.926759 -1.6681963
-2.7304528 4.0793257 -1.6585157
-1.9627192 4.0132542 -1.6764802
-1.2510952 4.1167831 -1.6502237
-3.0227511 3.9033422 -1.6689768
-0.96222174 4.3172116 -1.6581194
-2.430666 3.3831563 -1.6808932
-1.4526117 3.8340957 -1.651563
-2.6848316 3.4513502 -1.6798948
-2.2542872 3.4435537 -1.7000949
-2.3842671 3.7889822 -1.6803054
-2.1222336 3.9396322 -1.6795404
-1.5459156 4.3191667 -1.6430025
-1.4403135 3.8108616 -1.6809932
-2.0159268 3.6183777 -1.6703018
-2.6868851 3.2001903 -1.6865964
-1.7606337 4.2543015 -1.6496205
-2.2636118 3.7217677 -1.6728673
-2.8640099 3.8404629 -1.673398
-2.5728157 3.5424705 -1.6822371
-2.2704368 3.7068164 -1.6689633
-2.6100669 4.4907737 -1.6472619
-1.1562959 4.5375171 -1.6317534
-2.2603281 3.6198204 -1.6786242
-2.7640927 3.4071927 -1.6861411
-1.630109 3.7740037 -1.6564515
-2.4970081 3.2718227 -1.7000949
-2.7982297 3.2729721 -1.6953622
-2.3554289 3.9204719 -1.6704381
-1.1524022 4.0518513 -1.6547123
-2.9157629 3.6541824 -1.6775631
-2.6991055 4.4488759 -1.6505561
-2.088939 4.2324257 -1.6461136
-2.175715 3.6478262 -1.6698564
-2.0159397 3.8532283 -1.6697441
-1.9843959 4.440587 -1.6417781
-2.3337667 3.3879838 -1.6992645
-1.1751634 4.366313 -1.6495167
-1.5072507 4.4510546 -1.6382155
-2.3693559 3.5538228 -1.6802181
-2.1416819 3.9164608 -1.6749501
-2.0238428 4.416563 -1.6396858
-2.1909034 3.6472862 -1.6730446
-1.4549686 4.6116147 -1.631317
-1.9003404 4.0288672 -1.6711249
-2.4864221 3.8320968 -1.6681963
-1.6248319 3.8984997 -1.6594946
-1.6869042 3.7429523 -1.6540072
-2.7492743 3.572793 -1.6933107
-2.6170793 3.4984059 -1.6783332
-1.8180299 4.1583333 -1.6562414
-0.91429579 4.6019163 -1.6353433
-1.3768368 3.992831 -1.6594946
-3.0293949 4.2943773 -1.6387805
-1.7254351 4.1955934 -1.6554943
-2.3411074 4.4241271 -1.6403223
-2.0432839 3.5560181 -1.6934507
-3.025136 4.4963107 -1.6412332
-3.0113599 3.3994224 -1.7070813
-2.9660921 4.2892904 -1.6545094
-2.7829933 3.4084282 -1.6916068
-2.4865561 3.337739 -1.6792639
-2.395257 4.6096692 -1.6180099
-1.9122136 4.4660287 -1.6396858
-2.0508387 3.5432603 -1.6901287
-1.1950728 4.1180587 -1.6439773
-2.6049628 3.9805863 -1.6604738
-2.028897 4.2615342 -1.6461136
-1.0018846 4.0765605 -1.6483359
-2.089258 4.3943005 -1.6424755
-2.640718 3.8237767 -1.6665332
-1.2262756 4.1280861 -1.6517854
-1.6167859 3.7757566 -1.6548219
-1.2255037 3.8738203 -1.6760099
-1.7030479 3.7089279 -1.6843151
-0.87008387 4.4334078 -1.6480222
-0.925928 4.1792526 -1.6408539
-2.5001273 4.3536119 -1.6457549
-2.8142459 4.0242643 -1.6592132
-1.6036228 4.4351172 -1.6446774
-2.4307342 3.500968 -1.6762329
-2.7152104 3.320869 -1.6881887
-3.0152826 4.6072912 -1.6247954
-0.89796191 3.9724205 -1.639342
-2.8936181 4.343051 -1.6558273
-2.154906 4.0730281 -1.6510911
-1.4820067 4.3552647 -1.6481498
-1.503908 3.9349449 -1.6547123
-2.3461132 4.0134397 -1.6672685
-1.4039471 3.9697626 -1.6539153
-2.6640213 4.1185527 -1.6571209
-1.1022565 4.3680668 -1.6427919
-1.7272954 3.9769208 -1.6642784
-3.031918 3.1991839 -1.6947302
-1.7317742 4.3766294 -1.6410875
-1.2432858 4.0095334 -1.6483359
-2.3633263 3.4238787 -1.6784492
-1.7444762 4.2529125 -1.646679
-2.6166403 3.8402934 -1.6665332
-2.472873 3.7317574 -1.6803054
-1.1328762 3.9328246 -1.6483041
-2.6803539 3.2128019 -1.6890407
-2.1889801 3.4854326 -1.7000949
-1.518521 4.4610276 -1.6432416
-2.8048928 4.5924878 -1.6285965
-2.2246773 4.4901032 -1.6423597
-2.0956709 4.1163473 -1.6555032
-2.9659419 3.4122343 -1.6986661
-2.3255377 3.4496572 -1.6784492
-1.3264042 4.5160356 -1.6410875
-2.3391349 3.6747704 -1.6728673
-2.7349942 4.4135799 -1.646603
-2.4186916 3.5070701 -1.6754358
-2.3164859 3.4086254 -1.7025865
-2.783607 4.0477929 -1.6599107
-1.4265391 4.4893279 -1.6425235
-1.4616764 4.2828455 -1.6510111
-1.7130927 3.8685555 -1.6626829
-1.787353 4.3562446 -1.6418054
-2.6720972 3.8178163 -1.6716806
-1.6886992 4.5432487 -1.6355013
-1.3168744 4.3198652 -1.6472751
-2.8303676 3.3788056 -1.6947302
-1.0278144 4.2925673 -1.6542941
-2.8925734 3.6962116 -1.6849164
-2.8290167 3.35589 -1.6869218
-1.2625123 3.8638313 -1.6768403
-2.4722917 3.9259832 -1.6635917
-2.7653496 4.6252518 -1.6311238
-1.9447603 3.6509125 -1.6678576
-2.6607239 4.4815202 -1.6238515
-1.817329 3.824759 -1.6642771
-2.6858065 3.6299455 -1.696371
-2.8909988 3.5918021 -1.6853819
-3.0276353 4.5946283 -1.6235608
-1.2724279 4.240026 -1.6596495
-0.94048011 4.476747 -1.6378552
-1.3852824 4.5061355 -1.6439595
-0.98484826 4.1941366 -1.6525662
-1.491143 4.6000452 -1.631317
-2.1838529 3.9058118 -1.6795404
-0.85919398 4.3332391 -1.6558243
-2.6961012 3.620002 -1.695606
-1.6853697 3.9828758 -1.6595935
-2.5783913 4.1704912 -1.6564236
-1.5510821 4.0311494 -1.6572511
-2.3484519 3.8112848 -1.6803054
-2.5512817 3.2931514 -1.6808932
-1.6929184 4.2796979 -1.6488851
-1.7221568 4.0921583 -1.6650047
-2.7074611 3.6115134 -1.695606
-2.3885851 3.5342879 -1.6778268
-2.7526629 3.6850021 -1.6808988
-2.1646376 4.217308 -1.6540117
-1.4915179 4.3382521 -1.6430025
-1.3813391 3.8642263 -1.6531925
-2.2973804 3.4149549 -1.7000949
-1.4736661 4.162591 -1.6550593
-1.7794956 4.1769848 -1.6569886
-2.6174088 4.5047679 -1.6232026
-4.4530411 6.9791946 -1.4006535
-4.6209817 6.9495625 -1.4131593
-4.0510001 6.986877 -1.3627682
-4.3882518 8.0837669 -1.3480601
-3.1010787 6.9102378 -1.3679359
-3.9683888 6.9957299 -1.3565154
-5.2095718 7.9702606 -1.4006535
-5.1354461 8.4868793 -1.3804538
-4.011672 7.8799276 -1.3708131
-4.5249553 8.0918398 -1.3599257
-4.16886 6.9859691 -1.3738028
-5.0539312 8.5632277 -1.3841027
-4.0228348 7.8410158 -1.3657379
-4.7379317 8.0813408 -1.3756397
-4.580946 7.5608754 -1.3704747
-3.8563163 7.0020719 -1.34732
-4.6067324 8.1182775 -1.3701879
-5.1609616 7.9500942 -1.3935983
-4.4813771 7.7207618 -1.385362
-5.021987 8.5705481 -1.3825823
-4.3065901 6.9898138 -1.38778
-3.9923069 6.9866357 -1.3572509
-4.245173 7.7858272 -1.3752116
-4.560009 7.6883364 -1.3873919
-4.6067433 6.9755068 -1.4157339
-4.511827 6.9741383 -1.405803
-4.0802622 7.8312964 -1.3687831
-5.0891442 8.5308418 -1.3825823
-4.3655181 7.7438922 -1.3789334
-4.459805 8.0941362 -1.3551154
-4.4918871 8.092185 -1.3573602
-4.588203 7.6807318 -1.3887454
-4.5744581 8.1206503 -1.367943
-4.5783081 6.9801011 -1.413527
-4.2471952 6.9915805 -1.3822626
-4.2019863 6.9913359 -1.3778489
-4.2732668 6.9848967 -1.3837339
-5.1045465 7.9723711 -1.3916742
-4.3629866 6.9825811 -1.3921936
-4.4856219 6.981678 -1.4043318
-4.1138616 6.9934192 -1.3697568
-4.4418955 8.1219835 -1.3576809
-3.9204364 7.8530765 -1.3596478
-4.8573771 8.0516434 -1.381412
-4.4521546 7.7262764 -1.3836703
-4.2988067 7.7676091 -1.3769032
-3.909883 6.994832 -1.350998
-4.3943734 6.9837852 -1.3955041
-3.0722325 6.9037991 -1.3644
-4.3129263 7.7642879 -1.37758
-4.6331906 8.1054792 -1.3705086
-4.932096 8.6020889 -1.3798456
-4.6645126 8.1011667 -1.3724327
-5.130631 7.9579582 -1.3919948
-4.6968422 8.0984449 -1.3746775
-4.1330953 7.8124633 -1.3701365
-4.2686601 7.7707257 -1.3748733
-4.7085686 8.0893488 -1.3743569
-4.1085329 7.825408 -1.3701365
-4.5026131 7.7015476 -1.384347
-4.4005861 7.7489638 -1.3826551
-4.8249927 8.0549879 -1.3791672
-5.1097827 8.5046616 -1.3807579
-3.9654427 7.8503265 -1.3626928
-3.1452444 6.8924041 -1.3683288
-4.1378264 6.9838381 -1.3704926
-4.799664 8.0701056 -1.3791672
-5.0795174 8.5756569 -1.3877513
-3.8119252 6.9994869 -1.3429061
-4.3295712 6.9779153 -1.3881477
-4.0828977 6.9910603 -1.3664465
-4.2159772 7.7904696 -1.3735199
-4.0474467 7.8283401 -1.3657379
-3.9415388 6.9996142 -1.3546762
-4.1905417 7.8019443 -1.3731816
-3.9372091 7.8557076 -1.3613396
-4.4258914 7.7368107 -1.3829937
-4.1622829 7.8081236 -1.3718283
-4.225975 6.9814582 -1.3785845
-4.5287943 7.6907554 -1.3850236
-4.026073 6.9944658 -1.3616648
-4.8932619 8.5969553 -1.376197
-4.9372506 8.5489483 -1.3731562
-4.4236927 6.9815474 -1.3980788
-4.7652931 8.0698223 -1.376281
-4.6061811 7.6561627 -1.3867153
-4.5455728 6.9780126 -1.4098489
-3.8821309 6.9967875 -1.3487912
-4.34407 7.7627225 -1.3799484
-2.6018984 6.2967219 -1.3929057
-1.7836212 4.8300557 -1.6314487
-1.9448498 4.9788742 -1.6165916
-1.2845426 6.4385204 -1.3367355
-1.8898908 6.2759857 -1.3674946
-1.6236757 5.6580677 -1.4063358
-2.6775179 6.7823172 -1.3660856
-2.6224267 6.2903132 -1.393348
-2.4533544 4.7767153 -1.6248055
-2.3998663 4.9007635 -1.6087432
-1.4393624 6.2884817 -1.3435478
-1.75898 5.7984424 -1.3959733
-1.910614 4.8022289 -1.608923
-2.919374 6.735167 -1.3762654
-1.8126092 4.6454473 -1.6335318
-2.2009923 4.6950769 -1.6147645
-2.8212295 4.7042246 -1.6180042
-1.2034038 6.2942357 -1.3336077
-2.6288383 4.8013735 -1.6142998
-1.2627773 6.4348741 -1.3349663
-0.99607694 4.8553357 -1.6226666
-1.1534058 4.6884031 -1.6285274
-1.4294784 6.1294575 -1.3805543
-1.8965098 4.9934292 -1.615328
-1.6313627 6.0808535 -1.3810281
-2.2663872 5.4975104 -1.4222398
-1.5461868 5.2034159 -1.5994823
-2.6431544 5.9297156 -1.4288676
-1.6822988 5.3553109 -1.5985909
-1.9866482 6.4068499 -1.3690224
-1.1325033 4.8234062 -1.6219876
-1.7841709 6.0742474 -1.3895538
-2.1380692 4.8969393 -1.6159598
-2.6546741 4.9805546 -1.6081626
-2.7370818 6.1351585 -1.4054478
-1.3975828 5.1376739 -1.6096414
-2.5946651 4.7187853 -1.6298603
-1.1624154 6.1540284 -1.3729758
-2.2888341 6.0025511 -1.4122895
-1.2316339 4.990231 -1.5991865
-2.6032472 4.99687 -1.6051714
-1.3533514 5.2411532 -1.5945431
-1.7188988 5.6217856 -1.4042838
-1.0979525 5.0213375 -1.5991865
-2.074599 5.7487993 -1.4093628
-1.6415832 5.8025675 -1.3885347
-1.9199376 6.4047608 -1.3641572
-1.08657 4.8320327 -1.6213086
-1.3752708 6.6036234 -1.3147312
-2.005583 6.3968587 -1.3681377
-2.306658 5.3610044 -1.6157789
-1.9039944 6.2513585 -1.3629763
-1.9467869 5.105875 -1.6112128
-1.1178166 5.188241 -1.6039549
-1.7897589 5.1509314 -1.6075084
-1.9337586 4.7698941 -1.6307899
-1.3296762 5.6608386 -1.3873541
-2.3032577 4.8340626 -1.6197509
-2.920084 5.4315376 -1.4807243
-1.4082063 5.2483501 -1.6013345
-1.8026148 5.3849864 -1.403852
-1.6398001 5.6473775 -1.4047968
-0.969585 5.0380645 -1.5959414
-2.4761772 5.4848337 -1.4412215
-2.0763669 4.923419 -1.6159598
-1.6259118 5.8170376 -1.3910142
-2.0983601 4.7225475 -1.6380377
-1.8246866 5.3084841 -1.5985909
-0.95865935 4.8666959 -1.6240249
-2.2470026 4.9580913 -1.6044214
-2.9761739 5.8418207 -1.4444983
-1.0738539 4.714951 -1.631317
-0.9680655 5.0224233 -1.619589
-1.6016076 4.8715644 -1.6242012
-0.96262205 5.3732023 -1.5501339
-1.8624841 6.2557206 -1.361169
-2.6079681 5.4534221 -1.4484038
-2.9477971 6.2266674 -1.4101548
-2.4859328 4.8619452 -1.6099781
-1.2246269 6.29808 -1.3354149
-2.7849364 5.5640736 -1.4376296
-0.87199539 4.7507043 -1.6292248
-1.5550604 4.8846397 -1.6235423
-2.6876554 4.6598768 -1.6279647
-3.0502057 5.01826 -1.6268402
-1.3637103 4.7827678 -1.6287785
-1.0361878 5.2051587 -1.6039549
-2.2657998 5.9988232 -1.4094476
-1.9680809 5.578434 -1.4140313
-1.9187628 4.7759461 -1.6307899
-1.7833828 4.6567454 -1.6335318
-0.96698612 4.7227168 -1.6257377
-2.2743487 4.9560742 -1.6075084
-0.92134684 5.0350428 -1.6209067
-1.4804029 5.4223781 -1.3879513
-1.4837852 5.3978419 -1.5938051
-0.95364928 5.0328684 -1.6222245
-1.7402465 5.3628507 -1.6063678
-2.3896279 6.3407149 -1.3845023
-2.713959 5.5968833 -1.4371338
-1.2576561 4.6673436 -1.6306194
-1.8536321 6.5851603 -1.3355421
-1.4412048 6.5575352 -1.3079358
-2.2885988 5.1381402 -1.6021802
-2.8259375 5.439755 -1.4709768
-2.4973893 4.751698 -1.6241736
-3.0083637 4.8112955 -1.6177344
-1.3602098 4.9704599 -1.6037304
-2.8892171 5.8982978 -1.4473401
-1.0449746 5.8485584 -1.3657228
-2.3392789 5.1215611 -1.6039751
-2.1903796 4.6916885 -1.6121684
-0.86552554 5.0512233 -1.593994
-1.4828999 4.7451944 -1.6280992
-2.5645523 5.9535546 -1.4264992
-1.5779322 6.1109929 -1.3848172
-1.8196386 5.6326661 -1.4150572
-0.93480778 5.0191159 -1.6162946
-2.7940407 5.1456852 -1.6216006
-1.9586687 5.0891008 -1.6075084
-2.2304468 4.6811566 -1.6147645
-1.1391019 4.6938272 -1.6292248
-2.7604291 5.4386258 -1.4627686
-1.544678 6.4172263 -1.3446966
-1.9772091 5.760489 -1.4039079
-2.0565269 5.7552891 -1.4093628
-2.1903844 4.6701488 -1.6347432
-1.1061147 6.1742673 -1.375344
-2.9743767 6.7453127 -1.3827806
-2.7979989 6.1161885 -1.4072552
-2.5908215 5.4615893 -1.4484038
-1.1133044 5.0160184 -1.5985376
-1.2950941 5.176198 -1.6134325
-2.4387608 5.3190589 -1.6204363
-2.2583883 4.8572788 -1.6203827
-1.8664074 5.0088077 -1.6165916
-1.5855747 5.0947275 -1.6134325
-2.6491966 5.2260237 -1.6227649
-1.5149854 6.5970421 -1.3198277
-3.0200186 5.8367829 -1.4482875
-2.5522025 4.8403945 -1.6136824
-2.9540632 4.6400175 -1.6229433
-2.1252909 6.2331724 -1.3747238
-2.3385782 6.1834116 -1.3805975
-1.2050713 5.2791715 -1.5951606
-2.5682981 4.8340278 -1.6142998
-2.7997575 5.902596 -1.4388144
-1.5002762 5.2287145 -1.6031867
-1.4949063 5.4083939 -1.3853011
-2.4023275 4.7877235 -1.6203827
-1.8408388 4.7984295 -1.6281544
-1.3006802 5.8387461 -1.3761369
-2.1121159 6.5828466 -1.3512565
-2.9542496 5.5288353 -1.4495314
-1.6663152 4.8617907 -1.6281544
-1.8007929 6.2636218 -1.3589098
-2.7786877 6.4880185 -1.3826852
-1.2618079 4.9723725 -1.6248599
-2.0611734 4.7182956 -1.6314487
-1.2637991 6.2883496 -1.3349631
-1.2260934 5.175426 -1.6077459
-1.7089634 4.8369508 -1.6248599
-2.3629651 6.5427551 -1.3606001
-2.5551343 5.2641454 -1.6204363
-2.0185747 4.9596887 -1.6197509
-1.2695709 6.6148067 -1.3126076
-2.1036406 5.7444267 -1.4108505
-2.2613506 6.2141442 -1.3810493
-2.791616 4.721858 -1.6180042
-2.9408436 5.429121 -1.4827764
-2.2037487 6.034308 -1.4122895
-1.2625477 6.1045074 -1.365871
-2.3777709 5.3403182 -1.6186897
-3.0231836 6.0712547 -1.4203581
-2.7024667 6.7829547 -1.3681216
-1.0432348 5.2941341 -1.5889866
-1.9355503 5.5979862 -1.4160833
-1.4115733 5.3994231 -1.5884209
-1.5577782 4.9240298 -1.6076245
-1.168834 6.4367404 -1.3314281
-1.757249 6.2597895 -1.3552953
-1.2437575 6.1103473 -1.3663446
-2.4711845 6.1799078 -1.3909895
-1.3088734 6.5951877 -1.3100593
-1.4663495 5.2343793 -1.6019518
-2.0414147 6.2426982 -1.3706573
-1.6955254 6.4193854 -1.3535423
-1.8169556 5.3131523 -1.5991893
-3.0334306 5.0261841 -1.626258
-1.2033679 4.8178511 -1.626062
-2.6381304 4.9871783 -1.6075644
-2.4521277 6.3251753 -1.3862715
-1.7129765 6.5989151 -1.3304456
-1.5443586 6.2916112 -1.3498733
-2.4194365 5.0841851 -1.6039751
-2.583647 6.7934947 -1.3611994
-2.4070582 5.5155177 -1.4412215
-3.0343072 5.2501326 -1.6120253
-1.4606352 6.1320949 -1.3829226
-0.90253699 5.2145839 -1.5989002
-1.145341 5.6714153 -1.3796587
-1.9918462 4.7623096 -1.636061
-2.1763415 5.7193513 -1.4113464
-1.9760947 4.9665561 -1.6165916
-1.1931338 5.1811767 -1.6071141
-2.3198156 6.1925559 -1.3810493
-2.1430426 5.7401848 -1.4133301
-1.5524473 5.1009526 -1.6121688
-1.2184989 4.8140459 -1.626062
-1.3445865 4.974709 -1.6037304
-1.7622316 5.3760176 -1.3980217
-2.6604629 6.2976189 -1.3982131
-2.9932346 4.8207226 -1.6177344
-1.3686172 5.1592088 -1.6140642
-2.8389697 4.7002082 -1.6198564
-1.6175549 5.0846648 -1.6134325
-1.6849232 5.3967056 -1.3969617
-2.8882253 5.1066098 -1.6250938
-1.7874997 5.0375071 -1.6165916
-1.8718504 5.1014118 -1.6013345
-1.6573815 4.8894062 -1.6069756
-1.5816585 5.2026858 -1.6025692
-2.552331 5.4690185 -1.4458387
-2.9599292 5.0831065 -1.6297512
-0.8514114 4.8866 -1.6240249
-1.9862547 5.5740404 -1.4145443
-1.2827392 5.8446984 -1.3766328
-2.3031831 5.1274352 -1.6009839
-2.1728475 6.5589337 -1.350407
-0.98652506 5.0405579 -1.5978885
-1.5558589 5.3971968 -1.3868914
-1.0817679 5.0165534 -1.6255189
-0.97874498 5.3180413 -1.5926909
-1.6323402 5.4067988 -1.3953716
-2.5578403 6.3021193 -1.390252
-2.9786518 5.4172955 -1.4848285
-1.0262648 5.8499036 -1.365227
-2.1491506 5.1938806 -1.6009839
-0.86500025 5.0392809 -1.6189302
-2.2073185 6.2170043 -1.3774347
-1.0844377 5.1914434 -1.6026912
-2.1625624 4.6872559 -1.636061
-1.3267341 6.122695 -1.3734494
-1.4370081 4.755363 -1.6267411
-2.0254295 6.0739489 -1.4070793
-2.1454914 6.2283082 -1.3751756
-1.8948138 4.8064513 -1.6082739
-2.4713175 5.3018999 -1.6198542
-2.4770124 6.3301353 -1.3893675
-2.0629363 5.5667386 -1.4196744
-1.923129 5.2695565 -1.5973945
-2.0530655 4.7430754 -1.608923
-2.9262207 5.8800273 -1.4473401
-1.4205371 5.6845632 -1.3991537
-1.9240416 5.7825484 -1.4048996
-2.4569304 4.8617501 -1.6056563
-1.583813 5.8065519 -1.3855592
-2.040107 6.0546837 -1.4037635
-1.1162341 6.121099 -1.363029
-1.5150151 4.7429385 -1.6308155
-0.89065111 5.0463152 -1.6228833
-1.3233671 6.4226866 -1.3349663
-2.1795449 5.1749878 -1.5991893
-2.807168 6.7657442 -1.373008
-1.3411584 4.7891402 -1.6287785
-2.0396624 4.7529716 -1.610221
-0.92278242 4.7334619 -1.626435
-2.2554154 4.6558838 -1.6400143
-3.0281303 5.4997807 -1.452011
-0.8801946 5.032815 -1.6176124
-1.1613661 5.1922784 -1.6083777
-1.7744174 6.1115074 -1.397606
-1.4147785 4.9552035 -1.6037304
-1.7155089 5.0604725 -1.6159598
-2.3235583 5.5365386 -1.4376304
-3.0535743 4.7827296 -1.6177344
-2.0009766 6.2516851 -1.3697536
-3.0114958 6.2091198 -1.4128085
-1.050184 5.0296121 -1.5985376
-1.9403684 5.7709584 -1.4034119
-1.641855 6.5787034 -1.322376
-2.523591 5.0354323 -1.6045732
-2.5441408 6.1649885 -1.3941523
-1.5414954 5.4113436 -1.3895415
-2.9944308 5.5204058 -1.4525069
-1.0652378 5.0162287 -1.6242012
-1.7627562 6.5776992 -1.3287468
-0.92842126 4.8744707 -1.624704
-2.533669 6.4995437 -1.3648473
-1.7349744 5.1495719 -1.6013345
-1.7289728 5.0478659 -1.6134325
-2.3111315 4.9537263 -1.6118302
-1.7460454 5.0460019 -1.614696
-2.3977015 5.3397903 -1.6210184
-1.2122622 4.9730229 -1.6209067
-1.5751867 5.8109064 -1.3860551
-1.6974444 4.8530102 -1.6288133
-2.6973968 4.7653813 -1.6149172
-2.6676235 4.9671326 -1.6063678
-1.6351424 4.8703713 -1.6274954
-1.3941236 4.9369092 -1.6248599
-1.5471349 5.1124806 -1.615328
-1.1640781 4.9787045 -1.6189302
-2.5778041 5.4784293 -1.450969
-2.7547596 6.1229696 -1.4045442
-2.8503911 6.7497735 -1.3734151
-1.6893234 4.8824668 -1.6082739
-1.1457301 6.3148899 -1.3358668
-1.9275889 6.2583952 -1.3661391
-1.9727064 5.2511983 -1.5973945
-1.5983926 5.6371374 -1.3991537
-2.6156862 6.17308 -1.4022851
-2.3629923 4.8030305 -1.6191189
-1.3253726 6.2876077 -1.3376741
-2.7216334 4.6511097 -1.6311238
-1.8413565 5.3027248 -1.5985909
-1.1303809 6.6162181 -1.3075111
-2.1349556 6.0218925 -1.4037635
-2.9060297 5.4259162 -1.4776461
-1.2462592 6.3037653 -1.3376741
-2.0637722 6.5735855 -1.3461599
-1.1776409 5.2736635 -1.5914562
-1.6173058 6.1047106 -1.3857646
-2.2140965 4.6847277 -1.6134665
-1.6013982 6.5926909 -1.3232255
-1.8099508 6.4022555 -1.3566383
-2.4700785 4.7723627 -1.6260692
-2.2864265 6.5554066 -1.3576272
-2.0194242 6.2416563 -1.36885
-2.5733578 5.2595215 -1.6216006
-2.3181663 5.7114739 -1.4227524
-2.5902848 5.6317329 -1.4316788
-1.8777375 4.8043909 -1.6347432
-1.6454225 6.2760115 -1.3521326
-2.2261982 5.4492288 -1.4063358
-1.377111 4.9358001 -1.6228833
-1.3886926 6.2938795 -1.3421923
-2.7472734 6.2815299 -1.4026359
-2.8733099 6.1027126 -1.4117734
-1.460845 6.2915258 -1.3453552
-1.8738824 5.6189289 -1.4160833
-1.1113377 5.848146 -1.3686982
-1.5843259 6.2836761 -1.3503251
-2.5791209 6.2976551 -1.3911365
-1.2853854 6.1176114 -1.3701339
-1.1890119 5.70192 -1.3899193
-1.5945904 5.1867976 -1.5988649
-1.6137159 5.4063506 -1.3937815
-2.6601615 5.9178452 -1.4279202
-1.61278 4.7145681 -1.6321737
-1.6483158 5.0707855 -1.6121688
-1.9506712 6.2634835 -1.36885
-2.4568624 5.9336538 -1.4118159
-1.9725877 4.7580562 -1.6321077
-2.9413662 6.2383337 -1.4119239
-1.3062288 5.2628961 -1.5976301
-2.8967249 6.4533272 -1.386083
-2.2157359 5.1699791 -1.6021802
-1.6659894 5.0709987 -1.6140642
-1.5319575 5.4100428 -1.3884813
-1.6137887 5.3723679 -1.5973945
-1.0653727 5.8566937 -1.3686982
-2.7787626 5.8824368 -1.4321831
-2.5037546 5.2845416 -1.6192718
-1.6482079 5.3979511 -1.3943115
-1.1444819 5.2809587 -1.5914562
-1.688893 6.5909977 -1.3274726
-2.9017282 4.8585758 -1.6129487
-2.1664553 6.049861 -1.4127631
-2.9315372 6.0771208 -1.4122252
-2.132108 5.1988373 -1.6003857
-2.8043673 5.4400344 -1.4684117
-2.700392 4.648119 -1.626701
-2.0979908 5.2085843 -1.5991893
-1.3556745 6.6136589 -1.3160053
-1.1290561 5.0124965 -1.5985376
-2.8329828 6.767714 -1.3754511
-1.7684391 4.8356357 -1.6314487
-1.9091243 5.282764 -1.5997875
-1.2057424 5.8432631 -1.3721696
-1.444356 5.424109 -1.3858314
-1.9565125 4.7857556 -1.6095719
-2.0247214 4.759356 -1.610221
-2.4180059 5.67414 -1.4237442
-1.5090517 4.9312682 -1.6050284
-1.8045534 4.843081 -1.608923
-2.3805757 4.8006954 -1.6210144
-1.0027356 5.0392866 -1.5985376
-1.822071 6.2635522 -1.3602654
-1.9305522 4.9885058 -1.6178553
-1.9740168 6.0785956 -1.4042373
-1.9792907 6.0625739 -1.4009217
-1.6526921 6.420476 -1.3513309
-2.6049783 6.7853436 -1.3611994
-1.7970737 5.7928357 -1.3974611
-1.7532399 4.841167 -1.6314487
-1.24631 4.797204 -1.6226666
-2.477422 4.8641534 -1.6093607
-1.6618395 6.1169033 -1.3914485
-1.2016039 5.673595 -1.38325
-1.912189 4.9874454 -1.615328
-3.0244722 4.803441 -1.6183326
-1.7503182 6.1002626 -1.3933432
-1.2119396 5.1885023 -1.6109051
-2.5114207 6.1678724 -1.391893
-1.2164063 4.9959126 -1.5998359
-1.4630553 4.947083 -1.6056775
-2.2443159 4.6724243 -1.6141155
-2.6284299 5.2257929 -1.6198542
-2.3503206 5.9933553 -1.4156051
-1.3511032 5.6716614 -1.3914583
-2.4735296 5.0538392 -1.6027784
-2.7083697 4.9493856 -1.6075644
-1.8727486 5.285646 -1.596796
-1.972554 5.0776129 -1.6056563
-1.2027193 6.6014643 -1.3070863
-1.9607021 6.568357 -1.3385152
-1.1151718 4.8177886 -1.6185924
-2.1462727 4.6905847 -1.6347432
-2.3673606 4.9123249 -1.6075084
-0.88175416 4.8793054 -1.6233459
-2.828548 5.5637741 -1.4425887
-1.415695 5.1405854 -1.6121688
-2.2152543 6.5488591 -1.3512565
-1.1113242 6.2933388 -1.3295412
-2.9013197 6.7514901 -1.3778943
-2.4316008 6.1934953 -1.3905376
-2.4982493 5.4875627 -1.4442997
-1.494108 4.9377933 -1.6056775
-1.7826995 5.3814554 -1.4012017
-1.5412261 4.7226148 -1.6267411
-1.3451687 6.4261274 -1.3367355
-2.8955944 5.8648462 -1.440709
-2.4483969 6.5217061 -1.3627237
-2.2415459 4.8608956 -1.6191189
-2.9609077 4.8361702 -1.6165378
-2.0515049 5.5894971 -1.4242918
-2.0806682 6.0490851 -1.4056584
-1.3050132 6.1154408 -1.3706075
-2.5173173 4.8479133 -1.6105953
-1.5706611 5.1033158 -1.614696
-2.1757026 4.6770062 -1.6347432
-1.6076301 5.8221169 -1.3910142
-2.806438 4.7130647 -1.6180042
-2.6946981 5.601882 -1.4361418
-1.8992437 6.4088931 -1.3637148
-1.1827652 4.9942636 -1.5965904
-1.5670731 4.7259941 -1.6308155
-3.061358 6.7127409 -1.3840021
-2.2476501 6.2066808 -1.3783383
-2.6293213 5.4538913 -1.450969
-2.5394225 5.2738667 -1.6210184
-2.8259757 6.1011648 -1.4068033
-2.8693373 5.1106653 -1.6233473
-2.8350854 5.8813949 -1.437867
-1.9636137 6.4037461 -1.3668108
-1.7812576 5.6347861 -1.4124923
-1.3211616 5.439549 -1.3815911
-1.4323395 5.1379418 -1.6128005
-1.8302392 6.0889368 -1.3961852
-3.0495868 6.4128237 -1.3920289
-1.2046348 5.396544 -1.5722685
-1.6695648 6.2877765 -1.3561989
-0.96555287 5.7518244 -1.3919713
-1.492038 4.7226048 -1.6213086
-2.9323876 5.8465366 -1.440709
-1.6747708 6.0891962 -1.3857646
-2.0067971 4.7560287 -1.636061
-2.1964033 5.5237637 -1.4217265
-1.9548864 5.2537851 -1.5961978
-2.3380949 4.930532 -1.6087432
-1.6143168 5.1926455 -1.6025692
-1.4813718 5.825532 -1.3835756
-1.2653352 4.9915514 -1.602432
-3.0547206 5.5072227 -1.4569701
-1.6420116 4.8945894 -1.6069756
-2.4060338 6.533288 -1.3618742
-1.4292715 4.947104 -1.602432
-1.1863885 4.814311 -1.6233459
-1.328455 4.9770823 -1.603081
-1.5636379 5.2021718 -1.6007171
-1.3675036 4.966495 -1.603081
-1.461388 5.4195452 -1.3858314
-1.9092666 4.7960134 -1.636061
-2.198005 5.1733952 -1.6009839
-1.6295859 6.4143062 -1.3486772
-2.4111059 5.9817333 -1.418447
-1.2191043 5.3815536 -1.5686791
-1.7204214 6.5848589 -1.3278973
-2.8993423 5.5512686 -1.4480438
-1.3049474 5.1463208 -1.6045866
-1.3243495 5.155077 -1.6090095
-1.0922921 5.280345 -1.5877517
-1.495128 6.4329572 -1.3455812
-1.5275576 4.7310071 -1.6280992
-1.9722694 4.7813301 -1.610221
-2.8715301 5.9090886 -1.4478139
-1.8209822 5.8056736 -1.4024202
-2.8507316 4.6864061 -1.6180042
-2.8430119 5.4308505 -1.4709768
-1.5447282 4.9057374 -1.629472
-2.3225005 4.8353739 -1.6229099
-1.627838 4.9033093 -1.6082739
-1.6244662 4.7006044 -1.6287785
-1.9109814 5.583951 -1.4104402
-2.9790676 4.8317318 -1.6183326
-1.3883661 5.8424211 -1.3820878
-1.7370596 6.2634001 -1.3548434
-2.2395663 6.5529771 -1.3538047
-2.6482782 6.2964044 -1.3968862
-2.2383478 4.6578279 -1.6380377
-2.4934766 6.1793509 -1.3927968
-2.377805 6.0075893 -1.4212891
-1.2899774 6.6088657 -1.3121829
-1.1513643 5.0015965 -1.5965904
-1.594897 4.7107191 -1.6287785
-1.0075623 5.8511872 -1.364731
-1.4934028 6.5979538 -1.3189784
-1.278427 5.6825399 -1.3899193
-1.0201818 5.2102532 -1.6045866
-2.9124291 6.0863013 -1.4122252
-1.2309842 4.982039 -1.6255189
-2.2821932 6.2106714 -1.381953
-2.9800358 6.4217458 -1.3873571
-1.3771375 4.7730451 -1.6267411
-2.9856303 5.2801719 -1.6125859
-1.9540867 4.7554774 -1.6288133
-2.4081364 6.329535 -1.3836178
-1.2182189 4.6971593 -1.6375936
-1.5708977 4.9119167 -1.6050284
-1.9668736 6.2461605 -1.3661391
-2.6964183 4.9645948 -1.6099575
-1.7368774 5.3842626 -1.3980217
-2.3317361 5.693387 -1.4197769
-1.2854606 6.2938995 -1.3372222
-1.5504578 5.3750978 -1.5926085
-2.9970868 6.2290773 -1.4154623
-1.4962651 5.1177144 -1.6121688
-1.0460807 5.0028973 -1.6182712
-1.0434154 4.7179403 -1.6299222
-1.4695956 6.4148273 -1.3402737
-1.666131 4.6780109 -1.626062
-1.6965357 6.0932536 -1.3881328
-1.9374571 6.0311875 -1.3905011
-1.8471601 5.7933311 -1.4014282
-2.4681864 6.5121527 -1.3622991
-1.5133957 5.1166329 -1.6134325
-2.5131431 5.9627872 -1.4236573
-1.6785407 5.7940011 -1.3890305
-2.5857999 5.0016246 -1.6039751
-2.7104557 4.7535868 -1.6136824
-2.7300594 5.1820769 -1.6221827
-1.3894094 5.4225183 -1.3815911
-2.3785834 4.8963284 -1.6044214
-2.295202 5.7061248 -1.419281
-2.6580231 4.783103 -1.6136824
-1.5305318 5.1154943 -1.614696
-2.1748898 4.8973117 -1.6210144
-1.4149343 5.2406297 -1.5994823
-1.5214274 6.283165 -1.3467106
-1.4345274 5.6650972 -1.3950496
-2.1129217 5.1984253 -1.5979927
-1.540004 4.9216905 -1.6050284
-1.10182 4.9947853 -1.619589
-1.27086 5.261764 -1.5945431
-3.0595229 6.0486569 -1.4194545
-3.0235684 5.0455108 -1.6297512
-2.2101841 4.8731518 -1.6184871
-1.1832907 4.6828828 -1.6292248
-1.8165678 5.0190263 -1.6140642
-2.8418372 5.1369433 -1.626258
-2.9137855 6.4370618 -1.384384
-2.7613211 6.5039234 -1.384384
-2.1916003 6.5465093 -1.3491329
-1.1000316 4.8212681 -1.6185924
-2.3994203 5.6799212 -1.4232482
-2.0932918 4.9203711 -1.6172234
-1.3319752 4.9540386 -1.6248599
-2.8209467 6.4740214 -1.3835347
-1.4920875 6.0945148 -1.3758177
-1.4232441 5.8260441 -1.3801042
-1.4067154 5.8380299 -1.3820878
-1.6743522 6.4209094 -1.3526578
-2.7264814 5.9154096 -1.4340777
-2.0065444 5.070415 -1.6075084
-2.1059351 5.0196333 -1.6044214
-2.580173 6.4980478 -1.368245
-1.0821731 5.0247617 -1.5991865
-2.3621178 6.1869721 -1.3833085
-1.4653467 5.396944 -1.5920103
-1.7641145 4.672122 -1.6362479
-1.5345942 5.3836179 -1.5938051
-1.4187727 4.7490563 -1.6226666
-2.2570293 5.1541691 -1.6027784
-1.3121259 4.941751 -1.6189302
-1.8894002 4.7896676 -1.6314487
-1.7380209 4.8466516 -1.6314487
-0.84867311 5.2466884 -1.6064821
-1.0013616 5.200376 -1.6001638
-2.2943995 6.3592052 -1.380964
-1.0706255 5.3897023 -1.5615003
-2.5949743 4.8111167 -1.6118302
-2.7302999 4.9525819 -1.611752
-1.8925195 5.2887354 -1.5997875
-2.0814908 6.5577445 -1.3440363
-2.3153546 6.5390258 -1.356353
-2.1871388 6.2220669 -1.3769828
-1.1369077 6.1251979 -1.3649236
-1.5289656 5.6623702 -1.4006927
-1.4090732 6.4283929 -1.3402737
-1.4053413 6.1131067 -1.375344
-2.5077605 5.0433359 -1.6045732
-1.4209905 4.9135194 -1.619589
-2.0872097 5.2293558 -1.6039751
-2.6547561 6.7870541 -1.3652713
-2.7244983 6.7762451 -1.3685288
-2.1414263 5.5370188 -1.4196744
-2.2213342 6.0237145 -1.4113421
-0.95264053 5.2114506 -1.6007957
-1.0522555 5.3855414 -1.5591073
-2.657804 5.6151938 -1.4351501
-1.3871812 5.6649365 -1.3919713
-3.0655279 6.394383 -1.3899053
-2.7710786 5.9139681 -1.4383408
-2.0017273 6.5927439 -1.3461599
-1.118984 5.6786451 -1.3801718
-2.9466398 4.6604977 -1.6272652
-2.2712469 4.8449936 -1.6184871
-2.0384371 5.7617211 -1.4093628
-1.6852349 4.8672562 -1.6321077
-1.0093273 5.6854153 -1.3765807
-1.4695995 5.6541028 -1.3945363
-1.7924904 6.4172931 -1.3588498
-1.8368272 5.0257926 -1.6184871
-1.4012964 4.9668956 -1.6063265
-2.9279079 4.6633053 -1.6247954
-3.0043058 6.421217 -1.3894806
-1.5916276 6.0853496 -1.3796071
-3.0142746 6.7211404 -1.3815589
-1.8639796 4.8137956 -1.636061
-2.0546844 6.0353861 -1.400448
-1.7327359 4.6778326 -1.6342108
-1.7396532 5.8002243 -1.3949815
-2.585598 5.2428498 -1.6186897
-3.0177999 5.2596383 -1.6120253
-2.6639037 4.6865954 -1.6317556
-1.2732793 4.6669917 -1.6320143
-2.9285049 4.8514018 -1.6153414
-1.2770438 5.1728625 -1.6109051
-1.0014014 5.0255103 -1.6228833
-1.8519578 5.0182142 -1.6178553
-2.3874435 5.0992866 -1.6039751
-0.87058121 5.3406692 -1.5939257
-1.6727331 4.8841758 -1.6069756
-2.3020022 4.6421638 -1.6134665
-2.1987145 4.8887429 -1.6216464
-1.3625839 4.9437485 -1.6242012
-1.8817477 5.7760754 -1.3999405
-1.2268171 5.8527327 -1.375641
-2.3714128 5.1067615 -1.6039751
-2.8129687 5.1419063 -1.6233473
-1.5365741 6.5960608 -1.3206772
-2.2474191 5.1542039 -1.6015821
-0.88009208 5.2318892 -1.6033231
-1.7817124 4.8515296 -1.608923
-2.0804164 5.5602293 -1.4196744
-1.5179485 5.8161082 -1.3835756
-2.6109936 4.8046064 -1.6124476
-2.0327229 4.9498043 -1.6184871
-2.6787388 5.6138258 -1.4371338
-2.6602807 6.4910183 -1.3733416
-1.1836221 6.2979851 -1.3336077
-2.2245891 6.3529711 -1.3743298
-1.1286989 5.2882457 -1.5926909
-2.2220964 4.6614189 -1.6367198
-1.2321851 4.8047352 -1.6240249
-1.921209 5.0870953 -1.6025692
-2.108604 4.7055693 -1.6340843
-2.5181923 6.3180661 -1.390252
-2.3393166 4.8314781 -1.6241736
-1.3443207 6.2795987 -1.3367704
-2.1003056 6.0443521 -1.406132
-2.6270494 4.6899614 -1.626701
-2.0886788 5.0227189 -1.6031867
-1.7559122 5.353725 -1.6051714
-2.7119594 5.932765 -1.4364461
-1.8139344 4.8187542 -1.6314487
-0.91586447 5.0577188 -1.5991865
-2.9331903 6.4260941 -1.3839594
-2.1044683 6.2361207 -1.3738201
-0.96866912 5.2065644 -1.6001638
-2.3503647 4.8155575 -1.6210144
-1.2737345 4.9537349 -1.619589
-1.4438269 5.8309588 -1.3825837
-2.4939923 6.3150773 -1.3875983
-2.7709622 6.2817769 -1.4048475
-1.2320355 4.6896782 -1.6361988
-1.7911972 5.6052575 -1.405823
-3.0527027 5.2439008 -1.6131464
-1.0868137 5.3825674 -1.5603039
-2.7273495 6.4800911 -1.3767393
-1.6552171 4.8795404 -1.6327665
-1.2440654 6.4464641 -1.3367355
-2.5508957 5.6390524 -1.4291992
-1.2239879 5.6905599 -1.3888931
-1.1283252 5.1976166 -1.6077459
-1.7260265 4.836904 -1.6268367
-1.5697551 5.671258 -1.405823
-1.1348178 4.9951372 -1.6222245
-2.8149047 5.8867731 -1.4369198
-1.0117182 4.854022 -1.6233459
-1.5626285 6.1309671 -1.3886065
-2.0188043 4.7427363 -1.6334254
-1.7973173 4.6493673 -1.6328527
-0.89621425 5.2272253 -1.6026912
-1.0791954 5.3005104 -1.5933083
-1.5572513 4.7213163 -1.6280992
-2.1601758 6.360743 -1.3712337
-1.3298663 5.8401179 -1.3781205
-2.6376872 6.4939046 -1.3720675
-1.8807683 6.4204369 -1.3650417
-2.5285792 5.4630041 -1.4417346
-1.4901572 4.9206157 -1.6288133
-1.2962719 5.6784959 -1.3899193
-1.0339886 5.0310354 -1.5978885
-2.7403333 4.9339428 -1.6081626
-2.1734219 6.0101833 -1.4042373
-1.102667 5.1973019 -1.6058503
-0.89826608 5.0512676 -1.5959414
-2.3209591 4.9344177 -1.6075084
-1.0278112 4.7175283 -1.6285274
-1.4359394 6.1139755 -1.3772388
-1.3565494 6.0763459 -1.3639764
-2.7450697 4.7446737 -1.6167693
-0.95466763 4.7386079 -1.6306194
-1.686964 5.1675 -1.6019518
-2.1331153 5.5671453 -1.4263439
-0.96029675 5.3117375 -1.5896039
-1.2613736 4.7932649 -1.6226666
-1.871671 6.5698962 -1.3334186
-0.93495744 5.2069407 -1.5982683
-2.4885566 5.0443292 -1.6021802
-1.5806772 6.5976896 -1.3232255
-2.6324372 5.9557319 -1.4336041
-2.6370349 5.4480186 -1.4504559
-2.6037738 5.2381215 -1.6198542
-2.4034505 5.0917616 -1.6039751
-1.6863188 6.2711992 -1.3534878
-1.2432208 5.8393655 -1.3731616
-1.7805482 5.8040166 -1.3989487
-2.2572677 6.0331683 -1.4165524
-1.3872482 5.2362194 -1.5957779
-1.644755 5.3529868 -1.5944033
-1.9436265 4.7971272 -1.6115191
-2.0199022 5.5578232 -1.4135184
-2.5343142 4.8433442 -1.6118302
-2.8663399 4.8684673 -1.6099575
-1.2803769 4.8038001 -1.6280992
-1.8000894 4.8279738 -1.6327665
-1.8297251 4.8148007 -1.6321077
-2.3136933 6.3501353 -1.3805218
-1.7580428 6.4106364 -1.3553114
-0.94152921 4.8604598 -1.6206295
-2.2732093 5.1470532 -1.6027784
-0.9383018 5.3330512 -1.5951606
-1.3314804 6.6006303 -1.3121829
-2.9690557 5.0622597 -1.6256759
-1.1690177 4.6883979 -1.6299222
-1.9884639 6.0268421 -1.3933432
-2.1587381 4.9023795 -1.6203827
-2.0873072 6.2501025 -1.3756274
-1.7821544 6.2730007 -1.3598136
-1.0175492 5.0241928 -1.6235423
-2.216588 4.973846 -1.6050389
-1.0133697 4.722568 -1.6292248
-1.3950702 5.4056816 -1.5890191
-2.123378 4.6989212 -1.6340843
-1.3648529 6.2791557 -1.3376741
-1.4898567 5.6587954 -1.3971016
-0.99928445 4.7294002 -1.6306194
-2.6463926 4.6899714 -1.6298603
-1.8364143 5.3735542 -1.403852
-2.3247347 5.132369 -1.6051714
-1.2121997 6.444593 -1.3349663
-2.7472603 6.7712765 -1.3693433
-1.5972618 5.4132447 -1.3943115
-1.4022236 6.5260062 -1.2994416
-1.1372052 5.6769953 -1.3806849
-2.3808243 5.6856403 -1.4227524
-3.0012596 5.269094 -1.6120253
-1.4303718 5.2324929 -1.5982474
-1.3491005 5.1506171 -1.6096414
-2.9918094 5.0644083 -1.6297512
-1.5086384 5.6578174 -1.3981276
-0.82687014 4.7568636 -1.6285274
-0.9814477 4.7178187 -1.6250403
-2.3279262 5.9916682 -1.4132367
-2.4520836 5.655273 -1.4227524
-1.2255443 6.6091914 -1.3096347
-2.203933 5.4436765 -1.4027448
-1.7363441 6.4104857 -1.3539846
-0.86743718 4.8876019 -1.625383
-2.5447345 4.7329755 -1.6260692
-2.0623367 4.9334254 -1.6172234
-2.7646017 6.7832489 -1.373008
-2.4009452 6.172008 -1.3833085
-0.98879141 5.0453262 -1.6288133
-2.0181787 5.0535069 -1.6038041
-2.8967977 4.6625514 -1.619239
-1.5012379 5.3949952 -1.5944033
-3.0069804 5.4281554 -1.4909847
-2.5939629 6.5030775 -1.3703685
-3.0335686 6.0442805 -1.4158398
-2.9248235 5.5575976 -1.4525069
-2.1871915 6.3741922 -1.3760989
-2.3956447 4.7931929 -1.6210144
-1.8340138 5.7832794 -1.397957
-1.7440801 5.6403337 -1.410953
-2.2641647 4.9544606 -1.6056563
-1.4277886 5.4304872 -1.3863614
-1.5685916 6.4274864 -1.3482349
-1.367415 6.4314008 -1.3389469
-2.8724515 4.6887474 -1.6223259
-2.7836432 6.769105 -1.3717862
-2.6536546 6.1547327 -1.4018333
-1.1655344 5.6791406 -1.3827369
-2.6899085 4.7696118 -1.6149172
-1.7631255 5.0440798 -1.6159598
-2.2904682 4.8464327 -1.6216464
-2.7301517 4.7532744 -1.6167693
-2.9132502 4.8605776 -1.6153414
-1.3905489 6.4404078 -1.3420429
-2.3651576 5.6984692 -1.4242401
-1.2436482 5.1770902 -1.6096414
-2.6784382 6.4772029 -1.3720675
-1.5166568 5.3847327 -1.5926085
-2.6348498 6.7990065 -1.3660856
-1.0174079 5.0305548 -1.5965904
-2.8551435 5.1229897 -1.6245116
-2.271095 6.3572106 -1.3787526
-2.2890444 5.366468 -1.6151965
-1.1507674 4.8326187 -1.6267411
-1.6021346 5.0915337 -1.6140642
-1.9632326 4.9798145 -1.6191189
-1.7787046 6.4069595 -1.3557538
-2.7047193 5.4557586 -1.4602034
-3.0106609 5.0599046 -1.631498
-2.1102178 4.9172664 -1.6184871
-2.1239035 6.3852811 -1.3738874
-1.447505 4.9516554 -1.6056775
-2.4127018 4.8880935 -1.6068912
-3.0043511 5.8514166 -1.4497086
-1.1513822 5.3964481 -1.5686791
-1.8183057 5.3756366 -1.4027917
-2.435396 5.0765595 -1.6039751
-2.4934754 6.5171614 -1.365272
-0.90357774 5.026751 -1.6169536
-1.4081827 4.7679014 -1.6280992
-1.5204957 4.9093485 -1.6281544
-2.2990093 6.1961536 -1.3801455
-2.6678207 5.4674444 -1.4586642
-1.3071665 6.299377 -1.3394814
-1.7163476 5.1477895 -1.5988649
-1.3402309 5.2582669 -1.5988649
-1.6409664 5.6188507 -1.3976145
-2.501194 4.8541121 -1.6099781
-2.4767568 5.6635485 -1.4272156
-2.9598477 6.4310751 -1.3873571
-2.5004489 5.984972 -1.4274466
-2.0794632 6.3855338 -1.3707914
-3.0405641 4.7955322 -1.6189311
-1.3678367 5.8373113 -1.3796083
-2.4922154 5.6504111 -1.4257278
-2.3576641 6.346427 -1.3831755
-1.8690369 6.0791731 -1.3966588
-1.242586 4.9616399 -1.619589
-2.184895 4.8783059 -1.6165916
-0.96479779 4.8578115 -1.6213086
-2.2322021 4.9668579 -1.6050389
-1.093984 4.7006993 -1.62783
-1.4088188 5.4274697 -1.3842412
-2.8538959 4.8824048 -1.611752
-2.7696195 4.7524161 -1.6229433
-1.7582829 5.6237712 -1.4078751
-1.9955158 4.773725 -1.61087
-1.5245116 6.4220476 -1.3446966
-0.81834602 5.0528054 -1.6209067
-1.8014238 5.0264983 -1.614696
-2.3510885 4.9180255 -1.6068912
-0.91030669 4.7492385 -1.631317
-1.1179084 4.9931445 -1.6202478
-1.4801497 5.2206073 -1.5988649
-1.6300418 5.1857367 -1.6019518
-2.4204395 5.3232169 -1.6192718
-1.7531434 4.867959 -1.61087
-2.8513141 6.2500024 -1.4057319
-2.642597 5.6287885 -1.4366379
-1.1059656 5.3903546 -1.5638933
-2.5753238 4.7185631 -1.626701
-1.7874507 6.5872331 -1.3321444
-0.85706276 4.7534208 -1.6292248
-1.7246938 6.0833235 -1.3876592
-2.4689016 5.0645957 -1.6051714
-2.6179974 6.5039735 -1.3724922
-2.0412774 5.2331195 -1.5997875
-1.9836508 6.2653804 -1.3715611
-2.8694224 6.4740644 -1.3877819
-1.1300631 5.8465295 -1.3691941
-3.041136 5.8104606 -1.4449719
-2.049351 6.3952622 -1.3707914
-1.883191 4.8211727 -1.6115191
-1.3105037 4.9675727 -1.6274954
-2.4521542 5.0706053 -1.6045732
-2.9407809 4.8372712 -1.6135468
-1.9313223 6.5444589 -1.3317198
-2.7763746 6.1196175 -1.4058998
-1.6387695 5.1849804 -1.6025692
-2.5261722 5.2887101 -1.6233473
-1.8959438 5.597239 -1.4124923
-1.8562219 5.6247883 -1.4160833
-1.3463867 6.1203938 -1.3739231
-1.0586363 4.7164693 -1.6306194
-1.9024777 6.0524979 -1.3928695
-2.6067438 4.7056174 -1.6279647
-1.4651064 5.1306686 -1.6134325
-1.5061514 4.9177179 -1.629472
-2.2683427 6.5699568 -1.359326
-1.2910734 5.2725101 -1.5994823
-1.188055 5.2810769 -1.5945431
-2.6128626 5.2357321 -1.6204363
-1.8428236 6.2615404 -1.361169
-1.9865439 4.7733679 -1.6095719
-1.0939734 4.99651 -1.619589
-1.6971695 6.2723083 -1.3543916
-2.6143646 5.6141839 -1.430191
-2.8101902 5.5708995 -1.4420928
-1.915342 5.1197848 -1.6118302
-1.3118832 5.3970151 -1.5800457
-1.6880362 5.6472721 -1.4083881
-2.0607176 5.0445313 -1.6062737
-2.4391901 4.7860937 -1.6254373
-2.0097606 4.7656927 -1.610221
-1.1848655 5.3872418 -1.5680809
-1.2502048 6.6264496 -1.3143065
-1.2473043 4.9863372 -1.5991865
-1.7192526 5.7982206 -1.3929979
-3.0590882 5.0150933 -1.6274227
-0.89335996 4.7410107 -1.6271325
-2.6867044 5.4624996 -1.4596903
-1.2386642 5.273344 -1.5957779
-1.5309205 5.2118936 -1.6007171
-2.8765802 5.5500073 -1.4450682
-2.4207509 4.786942 -1.6229099
-1.3118309 4.9775772 -1.601783
-2.1249115 4.9088669 -1.6178553
-2.8135982 6.2713485 -1.4066166
-1.5006154 5.8246064 -1.3845674
-1.1495225 5.8486586 -1.3706819
-2.1320295 5.5903258 -1.431987
-1.040982 4.8420582 -1.6213086
-2.7357481 5.5970497 -1.4396132
-2.882134 4.6716294 -1.619239
-2.0482621 4.9433937 -1.6184871
-2.5825653 4.8242631 -1.6136824
-2.8883803 4.8709602 -1.614145
-1.8324594 5.6122432 -1.410953
-1.3747116 5.2552567 -1.6007171
-1.3504519 4.9607768 -1.6288133
-0.94762278 5.0518651 -1.5991865
-2.0721543 5.0275011 -1.6025692
-1.0621566 5.302011 -1.5926909
-2.5362697 5.9909868 -1.4321831
-2.6015453 5.6329436 -1.4331664
-2.1468556 4.7138419 -1.6128174
-2.6787412 5.9094572 -1.4279202
-2.7046423 6.2915125 -1.4008669
-1.8796428 5.5782614 -1.4063358
-2.5404453 5.9490943 -1.4231837
-1.074912 5.8569202 -1.3691941
-2.2395635 6.0148878 -1.4108685
-2.7938802 6.2801571 -1.4066166
-2.5518403 6.7741289 -1.3550916
-2.8460145 5.5548601 -1.4425887
-1.5052338 6.4305997 -1.3455812
-2.8746765 6.7479815 -1.375044
-1.5897268 6.4263105 -1.3491194
-1.7164867 5.3464561 -1.5991893
-1.7460262 6.5983338 -1.3321444
-1.4841137 6.3020916 -1.3489697
-1.9932038 5.2556996 -1.6009839
-2.6141322 4.7015171 -1.6279647
-1.8514893 4.8293839 -1.610221
-1.3039749 6.4306331 -1.335851
-1.7029132 6.0793681 -1.385291
-2.6752889 6.1517334 -1.4031887
-2.5325074 4.7459826 -1.6279647
-1.6584113 4.7027011 -1.6335318
-2.2598157 4.6670494 -1.6147645
-2.1396992 5.0115399 -1.6062737
-1.6990063 5.0640354 -1.615328
-2.009707 5.2494116 -1.6009839
-1.4059744 6.4932089 -1.2926462
-1.6685222 5.4038177 -1.3974917
-2.5925412 6.1722717 -1.400026
-1.2927862 4.9688759 -1.5972395
-2.6767862 4.7813497 -1.6161519
-2.2353985 5.3807492 -1.6128678
-0.88624656 4.7442532 -1.62783
-2.48245 4.7595196 -1.6241736
-1.1087476 4.6972384 -1.62783
-1.8081349 6.5815854 -1.3321444
-1.6106257 4.9030161 -1.6063265
-1.0709686 4.8335881 -1.6206295
-2.3801963 6.5261059 -1.3584766
-2.7787769 5.1561174 -1.6221827
-1.2552238 5.2694268 -1.5957779
-2.4291458 5.9723334 -1.4179734
-1.6244005 6.5971251 -1.325349
-1.1525296 4.8070536 -1.6179132
-1.5395042 6.1207862 -1.3848172
-1.3433511 5.1619239 -1.6128005
-1.4530579 4.7544174 -1.6280992
-1.898868 6.5091724 -1.322376
-0.92254227 5.3415914 -1.5970128
-2.8316634 6.2589302 -1.4057319
-1.4827703 5.1315179 -1.615328
-0.91239232 4.8736687 -1.6233459
-1.5863281 5.372581 -1.5950015
-1.0280821 5.3048482 -1.5914562
-1.5282049 4.9069543 -1.6281544
-2.5105462 4.7404652 -1.6229099
-1.7193768 5.3878522 -1.3974917
-1.187003 5.8451219 -1.3716738
-1.1880027 6.1313281 -1.3687129
-1.292559 4.9625168 -1.6242012
-2.7490389 5.178534 -1.6239295
-2.2924697 4.6595321 -1.6173609
-1.8334528 6.5928364 -1.3359668
-2.2497952 6.3606424 -1.3778681
-1.9417675 6.4042907 -1.365484
-2.1433263 6.3767304 -1.3734452
-1.7037934 5.1639786 -1.6025692
-2.5586119 5.0262966 -1.6069663
-2.6466911 4.7980742 -1.6161519
-2.1624155 5.7370567 -1.4143219
-2.5387654 6.3119302 -1.3906943
-1.1132812 5.2973433 -1.5945431
-1.2914637 4.7852454 -1.6226666
-1.1314254 6.2917356 -1.3299931
-1.4785023 6.1218147 -1.3815017
-2.7906053 6.4594903 -1.3780134
-2.9724233 6.2279191 -1.4128085
-2.1134241 6.0212469 -1.4018689
-2.0694311 6.3887925 -1.3707914
-0.98196298 4.8639674 -1.624704
-1.833864 6.4096498 -1.3597344
-2.0559816 4.7473245 -1.6400143
-2.6938908 5.1923513 -1.6198542
-2.3794615 6.1740594 -1.381953
-1.3530616 4.7740607 -1.624704
-0.83074731 5.2399502 -1.6033231
-1.5759945 5.4034061 -1.3900715
-2.7533126 5.9244022 -1.4388144
-1.6233525 4.8862534 -1.6314487
-2.4433672 4.8728375 -1.6068912
-1.80267 5.326076 -1.6015821
-2.7177956 6.1437268 -1.4054478
-2.5118439 6.5038185 -1.3639979
-2.0622234 6.2399588 -1.3715611
-2.0022833 4.964242 -1.6191189
-0.95555902 5.0503697 -1.5991865
-2.3683188 6.3445406 -1.3836178
-1.7194046 6.2763515 -1.3566508
-1.8925554 5.1079707 -1.6056563
-1.2795699 4.9820623 -1.600485
-1.389442 4.7596812 -1.6233459
-1.1989059 4.6827793 -1.6306194
-2.6189337 4.9886656 -1.6051714
-1.4709625 4.9125915 -1.6242012
-1.3230406 4.7824674 -1.624704
-2.2301691 4.8765612 -1.6222781
-2.0717835 4.7452526 -1.6121684
-2.2530379 5.3754611 -1.6134501
-3.0209792 5.5280118 -1.457466
-2.5381207 6.1780014 -1.3964113
-1.7487584 4.6758828 -1.6355689
-2.3315885 6.3373518 -1.3791949
-2.2039163 5.7378492 -1.4182892
-1.8659618 4.8217826 -1.6095719
-1.5809634 4.9166346 -1.6076245
-2.9231334 5.0933266 -1.6268402
-2.0933037 5.7440767 -1.4098587
-1.7899944 4.8504968 -1.6095719
-1.7206063 4.8735366 -1.608923
-1.6725113 5.6599526 -1.4104402
-2.9680936 5.2878475 -1.6120253
-1.1915866 6.4464521 -1.334524
-2.1747417 5.5198641 -1.4186485
-1.8342676 4.8298817 -1.6082739
-2.8068151 4.907424 -1.6111538
-1.3227602 5.2587657 -1.5976301
-3.0386298 6.7187624 -1.3831878
-1.2936138 5.3955359 -1.5782509
-2.7585917 4.9303188 -1.6099575
-1.8561351 5.291503 -1.596796
-1.9919244 6.597754 -1.3465846
-1.7537827 5.3787799 -1.3980217
-1.608946 6.4175038 -1.3482349
-2.1984651 5.4792275 -1.410953
-1.1693753 5.8526249 -1.3726655
-1.2663726 5.8581781 -1.3791124
-2.5716548 6.1767821 -1.3991222
-2.3203781 6.0279207 -1.4208153
-1.7685771 5.3354831 -1.6009839
-1.7384846 4.8752217 -1.6115191
-1.2257249 6.1199355 -1.3677655
-1.4785888 4.9424624 -1.6056775
-1.2049564 6.1161366 -1.365871
-2.4562709 5.3131032 -1.6210184
-2.2916036 6.5370331 -1.3542295
-1.8004413 6.0593104 -1.3871856
-2.0391011 6.566957 -1.343187
-1.3235095 4.6490989 -1.6306194
-2.1250377 6.5519824 -1.3457353
-1.6967963 4.670979 -1.6274201
-2.4365764 5.6682992 -1.4242401
-1.3198535 5.8384156 -1.3771287
-1.4657266 4.7426524 -1.625383
-1.3401467 4.6521335 -1.6334093
-2.3841317 5.533886 -1.4432735
-1.8184106 4.8338523 -1.6076245
-1.1489578 6.4423003 -1.3318703
-1.3569703 5.3976631 -1.5836351
-1.3493955 5.4034958 -1.5848315
-2.1210141 5.7359686 -1.4103546
-3.0565286 6.2023005 -1.4159045
-1.4626008 5.8282752 -1.3830796
-2.3227177 5.3519793 -1.6151965
-2.2242391 6.202692 -1.3756274
-2.2578981 5.7168221 -1.4182892
-2.288295 4.9454584 -1.6062737
-0.86185396 5.2233849 -1.599532
-1.0249674 4.8416281 -1.6199505
-1.1041497 5.6973009 -1.3842759
-2.2034469 4.6598215 -1.6334254
-1.1823092 6.6071353 -1.3075111
-0.89567751 4.8691173 -1.6206295
-1.4088783 6.2913876 -1.3426441
-1.4075869 4.9252319 -1.6222245
-2.5107329 5.6443272 -1.4262238
-2.8193822 4.8936086 -1.6093593
-1.5451969 5.6519508 -1.3991537
-1.1627368 5.284761 -1.5939257
-2.0774908 4.7152615 -1.6327665
-1.3288311 5.3928671 -1.5800457
-1.1831232 4.9897394 -1.6242012
-2.1852927 4.9876752 -1.6050389
-1.5749525 4.8941345 -1.6288133
-1.9345952 6.0871792 -1.4032899
-1.01068 5.3043184 -1.5902213
-1.0655793 5.0244393 -1.5978885
-1.1624476 6.2940035 -1.3318003
-2.1688471 4.992774 -1.6044214
-1.4426717 4.9308119 -1.6274954
-1.6879244 4.6921892 -1.6335318
-2.0916541 5.5374179 -1.4150572
-1.260958 5.4091401 -1.5800457
-2.971606 5.519526 -1.4495314
-2.6673591 5.2210746 -1.6239295
-1.0570116 4.8424349 -1.6226666
-0.83481145 5.0539393 -1.6222245
-0.83474934 4.8818407 -1.6213086
-1.2942741 4.6573219 -1.6306194
-2.6730037 4.6682973 -1.6279647
-2.9436805 6.7331285 -1.3778943
-1.8591067 5.1161914 -1.6044214
-2.1531522 4.9995623 -1.6044214
-2.2078505 6.3691297 -1.3765411
-2.3378415 6.5372472 -1.3576272
-2.7550151 5.5919118 -1.440605
-1.2567286 5.6695595 -1.3853021
-1.3136648 5.672513 -1.3894062
-1.6991136 5.3499999 -1.5985909
-2.9497676 6.0661259 -1.4117734
-2.3577271 5.1193976 -1.6057696
-0.81961697 5.3448792 -1.5926909
-2.5632911 6.5152278 -1.3703685
-1.1705865 5.0126743 -1.601783
-2.3675005 5.5431242 -1.4437866
-1.2757919 5.3958554 -1.5770543
-2.9505398 5.295464 -1.6114646
-2.5894933 5.9597011 -1.4302884
-2.8204358 6.1144586 -1.4090625
-1.8794793 6.5188661 -1.3232255
-1.6538744 5.1761889 -1.6013345
-1.9409764 5.2670765 -1.5985909
-2.0859089 4.7369928 -1.6115191
-1.8904625 6.0806842 -1.3985534
-1.7012962 5.3895445 -1.3964317
-1.9996896 5.7670813 -1.4073793
-1.5752348 4.7014618 -1.6233459
-1.238935 5.3907309 -1.5728667
-1.5156188 5.2203259 -1.6019518
-1.8430572 6.0627332 -1.3909749
-0.95367253 5.3225937 -1.5926909
-1.7015665 5.8054557 -1.3934938
-1.1768725 6.1255598 -1.3668183
-2.1993976 4.9773111 -1.6038041
-2.7275238 6.2901306 -1.4026359
-1.0692083 6.284821 -1.3259267
-1.2594676 5.1713114 -1.6090095
-2.0488091 5.228126 -1.5991893
-0.93069124 5.0492411 -1.5972395
-2.1396773 4.695672 -1.635402
-2.1187589 4.7306838 -1.6141155
-1.1789042 5.1941619 -1.6102732
-1.8240209 5.1449537 -1.6093607
-1.7103088 5.6567249 -1.4124923
-2.03075 4.7294149 -1.6307899
-1.1462473 5.2014666 -1.6102732
-1.9028766 5.7793498 -1.4024202
-0.81974751 5.0703521 -1.5978885
-1.4166533 6.2796559 -1.3403851
-2.9362271 5.0791616 -1.6250938
-2.7137647 5.1906285 -1.6221827
-2.7671134 5.1732383 -1.6250938
-2.1038344 6.3919215 -1.3738874
-1.1529925 5.0026016 -1.6261778
-2.6794643 6.287437 -1.3977709
