# .PCD v0.7 - Point Cloud Data file format
VERSION 0.7
FIELDS x y z
SIZE 4 4 4
TYPE F F F
COUNT 1 1 1
WIDTH 1543
HEIGHT 1
VIEWPOINT 0 0 0 1 0 0 0
POINTS 1543
DATA ascii
6.5071583 1.9034777 -1.7064919
6.1804528 1.789924 -1.7202212
5.7563343 0.82001334 -1.7248138
6.6292806 1.1804744 -1.6937715
5.6782122 1.2512858 -1.7248138
5.4989562 1.9125465 -1.7272834
5.7412314 2.1778188 -1.7083468
7.1193867 2.2919626 -1.6694862
5.4800243 0.60488778 -1.7586118
6.0846543 1.2087301 -1.7275591
5.306735 2.2378302 -1.7069092
5.7008333 0.50158852 -1.7423271
5.8570728 2.3671055 -1.6860245
5.8286395 2.4412544 -1.6865852
6.7631278 1.8200297 -1.7028632
5.5947609 1.540732 -1.7211094
6.4919553 1.9878856 -1.7091419
5.7282643 1.7876955 -1.7200327
5.5200891 0.41067269 -1.7348436
6.9917364 1.8545362 -1.6964941
5.4926748 2.6140981 -1.690881
5.7045965 0.45680201 -1.7423271
6.7204819 0.6798104 -1.6996018
6.7721558 1.7087756 -1.6977332
6.5305476 1.7335006 -1.7001318
5.6978884 0.42029473 -1.7391679
5.4393234 0.9076677 -1.727704
5.7002654 1.0973903 -1.7217268
5.4079618 1.069199 -1.7270547
6.9560061 0.65037453 -1.698246
7.2834377 2.1074605 -1.6945901
5.7074394 1.0060259 -1.7186399
5.5965948 2.1006365 -1.712854
7.1215625 1.037208 -1.6870718
5.4214325 0.83252549 -1.7487288
6.7405987 1.985499 -1.7090197
5.4855967 0.57063001 -1.7592708
5.544518 1.7447085 -1.7241963
5.3602161 1.2069705 -1.7520231
6.7710266 2.2364743 -1.670211
6.0464211 1.5105455 -1.7362918
7.1616783 0.68915641 -1.6865759
5.6669087 0.74189925 -1.7397997
6.500618 1.945964 -1.708082
5.887084 1.0807915 -1.7152469
6.1060495 2.5318224 -1.6598504
6.4117851 1.741922 -1.7234769
5.7723994 0.66557026 -1.7235789
5.3218036 0.36884406 -1.7591586
6.2059517 1.6921244 -1.7196605
6.8578525 1.5144044 -1.7079936
5.6881189 0.53655303 -1.7391679
5.6929235 0.48291856 -1.7391679
5.6157136 1.0518326 -1.7391679
5.4871926 0.53597683 -1.7586118
5.4825921 0.48345637 -1.7553176
6.6359754 1.0958487 -1.6916513
6.0362906 1.4878157 -1.7316344
6.3291688 2.1470397 -1.679991
5.7079244 2.2165382 -1.703107
5.9172721 1.9623197 -1.736874
5.4577727 0.84043092 -1.7303002
5.7807631 2.5286975 -1.6837822
5.7907944 1.5216515 -1.7158452
6.2254405 1.5409098 -1.7140546
6.2803187 1.4085939 -1.7207818
6.1167922 0.98691183 -1.7252302
5.3204961 0.43601441 -1.7605166
6.744566 1.8948113 -1.7033763
6.6118536 0.57134348 -1.7212975
5.411294 1.0522051 -1.7270547
6.9568915 0.73879045 -1.7008111
6.1808019 0.65138555 -1.7310523
5.5662498 2.5006006 -1.6967031
5.3116064 0.4520525 -1.7578006
6.1928139 0.52504432 -1.7310523
5.8118963 0.40314028 -1.728518
5.5872993 1.5955137 -1.7235789
6.5314693 1.0857586 -1.7169389
5.2589202 2.3056815 -1.7013527
7.0808969 1.3285196 -1.6890554
6.2713451 1.448024 -1.7207818
6.999403 1.8330473 -1.69699
5.5255499 2.1737761 -1.7002909
5.806808 0.42110366 -1.7272834
5.3846726 2.1326425 -1.717405
5.6541181 1.4810903 -1.7346921
5.5462146 1.441364 -1.7448545
6.3460779 0.85719705 -1.7112516
5.3602948 1.2625133 -1.7251076
6.7361784 2.0072231 -1.7095325
6.3973432 1.8573403 -1.7283806
5.953114 1.7584012 -1.7287234
5.3452444 2.5012159 -1.6889246
5.2575588 0.73172915 -1.7496518
5.9536204 2.1804814 -1.6927516
7.1151128 1.0933987 -1.6875678
5.6729794 0.72455198 -1.7410634
5.4497886 2.069978 -1.7297529
6.3359585 2.6163392 -1.6633606
6.068152 2.4449806 -1.6945997
6.4130859 1.5915654 -1.7131248
6.30024 1.2785647 -1.7185394
5.7987909 0.47548634 -1.7260485
5.8436213 1.3891354 -1.7218276
6.5067081 2.3116941 -1.6766992
7.3843474 1.9993004 -1.7111682
5.7964654 0.45694903 -1.7248138
5.4593239 0.62006009 -1.7520231
5.518693 2.1911263 -1.7002909
5.8682547 2.3288579 -1.6849031
6.6686034 0.91904402 -1.6932415
5.7004786 1.9874346 -1.7313993
6.9909639 1.9604222 -1.7034369
6.0106316 2.158426 -1.7062062
6.5232058 1.7535135 -1.6996018
6.8399272 1.4878391 -1.7018372
7.1006651 1.159796 -1.6865759
5.330442 2.5147684 -1.6865315
5.7715302 0.72067541 -1.7254311
5.3562913 1.3507944 -1.7309492
6.1780934 0.62165332 -1.7293055
6.6201959 0.37343514 -1.7196629
5.7238927 1.8456498 -1.7242203
7.0635982 2.4466751 -1.6685388
5.9802828 0.49505991 -1.7200327
6.8854027 1.2391065 -1.7008111
5.6324196 0.90006274 -1.7360088
5.7014422 1.907873 -1.7236221
5.8755417 2.3104124 -1.6849031
6.965909 0.50805891 -1.6977332
6.1857843 1.7075875 -1.7151759
6.3432045 2.1295733 -1.6821111
7.0969863 1.1820964 -1.6865759
6.1057911 1.0640322 -1.7258123
7.412394 1.7711809 -1.7040632
5.910255 2.0013244 -1.7386206
5.3248124 1.3849642 -1.7546586
5.5190477 1.9586581 -1.7383964
5.3854651 2.0239277 -1.7524365
5.5187716 0.42801139 -1.7348436
5.3028226 0.66193146 -1.762554
6.9354181 0.85790557 -1.6987591
5.6787162 0.6619243 -1.7404317
5.3923759 1.1632925 -1.728353
5.2553682 2.1276484 -1.7246356
5.3137388 2.2211485 -1.7069092
6.2968369 1.2367823 -1.7151759
5.3193812 0.40227452 -1.7591586
6.7332163 2.3182635 -1.6677314
6.3970122 1.7594732 -1.7207527
5.3186064 1.4012147 -1.7539996
5.4441524 1.7205936 -1.7379044
5.8329229 1.4253771 -1.7212293
5.7038097 1.9485348 -1.7284081
5.7620068 1.5917989 -1.712854
6.9850669 1.86453 -1.6955023
6.1519537 1.8657985 -1.7185394
6.6004725 0.61213213 -1.7191181
5.4794464 0.5178926 -1.7553176
6.2271647 2.1633208 -1.708766
7.1906562 0.47586581 -1.6895515
5.5705881 2.48153 -1.6955385
6.3608632 0.81849265 -1.7140546
6.2424097 2.305352 -1.6720408
6.7529397 1.9431103 -1.7090197
7.2495799 2.1470389 -1.6893798
6.4473166 2.4399276 -1.6736209
6.1081161 2.0533793 -1.7230242
5.7150979 1.8230802 -1.7194345
5.2828207 1.5551549 -1.7251076
7.4526653 1.3527098 -1.6926955
6.6125431 0.43554604 -1.7185732
6.7741451 1.845906 -1.7074804
7.1738219 2.2228494 -1.6770647
5.8545923 1.3335817 -1.7212293
6.6189904 0.39423311 -1.7196629
5.7449212 2.5670345 -1.6787368
6.594089 2.6000969 -1.6593009
5.3335919 1.2716575 -1.7480698
6.1902189 2.2160084 -1.7038622
7.0829759 1.3173892 -1.6890554
5.4729629 1.5517696 -1.7309541
7.389255 1.9508536 -1.7092736
7.1826253 2.2008784 -1.6775383
6.4983435 1.2488103 -1.715849
7.1415868 0.78930348 -1.6840963
5.4370804 0.76509547 -1.7507054
5.6717219 1.3060528 -1.726666
28.046579 12.367422 -0.46836132
28.83116 11.890335 -0.30081964
28.710455 12.158401 -0.30068916
28.115564 11.925883 -0.46588975
28.575518 12.36688 -0.30000436
27.881912 13.034606 -0.47114176
28.664747 12.245423 -0.30055875
28.864672 11.798182 -0.30075443
28.018543 12.460349 -0.46862608
28.782581 11.976248 -0.30062395
28.50458 12.549388 -0.30013478
28.1639 11.634369 -0.46438926
28.638126 12.287284 -0.30042827
28.43576 12.625922 -0.299613
28.031784 13.192044 -0.29746062
28.527363 12.452596 -0.29984128
28.055063 12.213534 -0.4671697
27.937229 12.953693 -0.47149479
27.766312 13.408336 -0.47237754
28.225765 12.95977 -0.29873252
28.151194 11.732817 -0.4649629
28.143677 11.833619 -0.4656691
28.16313 13.038311 -0.29834116
28.949368 11.621046 -0.30095005
28.103903 13.118276 -0.29801506
27.804686 13.319312 -0.4722892
28.063314 12.269624 -0.46783167
28.750351 12.068922 -0.30072182
28.074938 12.117403 -0.46672833
27.945103 12.850789 -0.47070044
27.884218 13.142626 -0.47220099
28.910862 11.711196 -0.30091751
28.096331 12.022041 -0.46633106
24.82394 12.020448 -0.74127221
24.442667 11.646262 -0.72384572
24.827374 11.925906 -0.73996347
24.84058 12.173419 -0.74409622
24.643507 11.647302 -0.73011374
24.853029 12.373874 -0.74754018
24.83193 11.641243 -0.73589963
23.530849 13.835587 -0.89393705
24.073549 11.62498 -0.87115377
24.743103 12.222126 -0.7418232
24.840965 12.076937 -0.74264973
23.500481 13.867456 -0.89353317
24.096226 11.729375 -0.87381989
24.574268 10.515115 -0.87099212
24.940899 10.796363 -0.72735858
25.031651 9.4764471 -0.87244648
24.999044 10.63553 -0.72701418
24.559467 10.600162 -0.87180012
24.8557 11.557255 -0.73541749
24.488718 10.752674 -0.87163848
24.921038 11.114828 -0.73114693
25.151421 9.9157581 -0.72246814
25.179691 9.7445002 -0.7212283
24.932917 9.7990026 -0.87341589
25.050177 10.379515 -0.7252233
25.242355 9.4961872 -0.72019511
25.023125 10.553054 -0.72666973
25.003624 9.5557461 -0.87252718
24.967346 10.7148 -0.72708309
24.473623 10.79193 -0.8717193
25.257088 9.4112349 -0.71964413
24.68335 10.287648 -0.87147695
24.967886 9.6320925 -0.87228483
25.024822 10.461248 -0.72549886
25.11305 10.221157 -0.72515446
24.616381 10.441758 -0.87139612
24.339724 11.100263 -0.87188095
24.288382 11.169182 -0.87115377
25.167498 10.059446 -0.72481006
24.819954 9.9803772 -0.87188095
24.808855 10.066544 -0.87276953
25.175003 9.8337812 -0.72219265
25.201191 9.5711689 -0.71978188
24.531549 10.679648 -0.87204248
24.271311 11.253814 -0.87196165
24.118967 11.553606 -0.87155765
23.266636 9.4814396 -0.92282045
24.937508 9.7104797 -0.87228483
23.268532 9.3970518 -0.92146921
25.086357 10.302294 -0.72536111
24.719242 10.211581 -0.87163848
25.148745 10.143705 -0.72529221
24.930651 10.885104 -0.72825402
24.919285 11.020281 -0.72976935
24.636168 10.358955 -0.8708306
25.176685 9.9714813 -0.72398347
24.925592 10.976284 -0.72935605
25.208311 9.6646347 -0.7211594
24.866037 9.9082623 -0.87252718
24.234026 11.329161 -0.87188095
25.065044 9.3991547 -0.87260801
24.851969 11.460664 -0.7339021
24.178419 11.395892 -0.87099212
24.866047 11.372541 -0.73307556
24.158752 11.479493 -0.8717193
24.424992 10.862276 -0.87107295
24.771551 10.142174 -0.87252718
24.872278 9.8655186 -0.87212318
20.847607 9.8519659 -0.98183286
20.960676 9.5850697 -0.98131645
20.923594 9.7275019 -0.9826591
20.944975 9.6575518 -0.98214269
20.752031 10.047139 -0.98172951
20.892929 9.7931929 -0.9826591
20.838198 9.9277029 -0.98307216
20.794298 9.9870768 -0.98234916
26.117544 12.0744 -0.63454771
25.775654 12.56147 -0.63161808
27.676874 13.418725 -0.47070044
26.149893 11.989799 -0.63437188
27.514921 13.554287 -0.46880257
25.872721 12.558436 -0.63413751
25.926458 12.484025 -0.63460624
26.258083 11.741175 -0.63425469
25.970568 12.205166 -0.63226253
26.070414 12.152183 -0.63425469
26.178324 11.903463 -0.63407892
25.965563 12.402493 -0.63460624
27.630993 13.503843 -0.47061211
26.289352 11.656203 -0.63407892
23.151583 9.8614359 -0.92462218
23.003847 10.708354 -0.93408144
23.002638 10.795878 -0.93570304
22.878271 11.001775 -0.93462193
23.142508 9.9436016 -0.92570329
23.199224 9.6243839 -0.92246008
23.108856 10.101641 -0.92714465
22.854372 11.30148 -0.93957675
21.108624 9.3734388 -0.98379529
22.893915 11.098045 -0.9371444
22.934351 10.940197 -0.93570304
23.200191 9.7103615 -0.92399156
22.83239 11.201412 -0.93669403
23.165892 9.7816353 -0.92381144
22.828424 11.154987 -0.93561292
23.066389 10.649454 -0.93552279
23.052523 10.555268 -0.93318057
22.974018 10.870665 -0.93597329
23.080654 10.17582 -0.92732489
23.131315 10.025013 -0.92669427
23.227497 9.5506859 -0.92236996
20.992502 9.5199995 -0.98141956
23.071024 10.476163 -0.93245983
23.09934 10.227467 -0.9290365
16.002325 5.4833412 -1.2593212
14.581228 5.1617141 -1.3400607
15.157721 5.9059596 -1.3159789
14.580948 5.0844722 -1.3374602
16.003862 5.5400729 -1.2610562
16.093565 5.0387192 -1.2548103
15.883734 6.0064354 -1.2650466
15.069828 6.3403478 -1.3236586
15.236171 5.445466 -1.3077374
15.253183 5.3436661 -1.3060515
15.136171 6.0901804 -1.3204744
15.210849 5.7621255 -1.3157915
15.717443 6.7181964 -1.2747626
14.767801 6.8511114 -1.3171027
14.59873 5.0392895 -1.3376602
15.174367 5.9399629 -1.3186013
15.848296 6.1930041 -1.2679961
14.58046 5.1099887 -1.3382603
15.88713 6.0648103 -1.2671287
15.106818 6.1889462 -1.3214109
16.09218 4.9828529 -1.2532489
15.142678 5.9824595 -1.3172901
15.183377 5.8063173 -1.314855
15.209443 5.652513 -1.3120455
16.097664 5.1512141 -1.2581067
15.811426 6.3509703 -1.2700782
15.802481 6.4050903 -1.2711189
15.214746 5.5458779 -1.3090485
15.064489 6.3939033 -1.3251569
15.075421 6.4545751 -1.3283412
15.734352 6.7546229 -1.277365
15.245703 5.3948932 -1.306988
15.858375 6.139605 -1.2671287
16.007076 5.5975227 -1.2629647
15.855247 6.0812297 -1.2650466
15.780436 6.453949 -1.2709455
15.73297 6.6664491 -1.2742419
15.716716 6.8055944 -1.2777119
15.82389 6.2983332 -1.2693841
15.175565 6.0507307 -1.3225347
15.254853 5.2904801 -1.3045532
15.847309 6.2500415 -1.269731
15.213972 5.7086945 -1.3142931
14.90803 7.0306826 -1.3362081
15.230864 5.6060805 -1.31242
14.572441 5.2101617 -1.340861
15.0873 6.236372 -1.3214109
16.08906 5.0928411 -1.2558515
15.245195 5.5028095 -1.3103597
15.126184 6.1414585 -1.3214109
15.259383 5.2652078 -1.3041785
15.091507 6.2937446 -1.3238459
15.760079 6.5034971 -1.2709455
15.159491 5.8518333 -1.3142931
14.876884 7.0731907 -1.3352716
15.76166 6.56213 -1.2730277
14.903008 6.971118 -1.3333987
15.740968 6.6116114 -1.2730277
21.459398 7.9953933 -0.97367311
21.316105 8.5968027 -0.97801113
21.530275 7.6008945 -0.97016132
21.259865 8.8862534 -0.9810065
21.411734 8.0543537 -0.97243357
21.492466 7.7778778 -0.97140074
21.396152 8.2022743 -0.97439611
23.224846 8.6652679 -0.90768564
21.16415 9.081521 -0.98038685
21.228157 8.951458 -0.98079991
21.285828 8.8186626 -0.98090315
21.462297 7.8433056 -0.97109091
21.170359 9.1629944 -0.98234916
21.570061 7.462851 -0.96974814
21.194414 9.0157604 -0.98049009
21.324453 8.5224056 -0.9769783
21.317385 8.4808025 -0.97584212
21.555941 7.5338593 -0.97026455
21.374006 8.2708845 -0.9746027
21.39006 8.1229906 -0.97264016
21.496103 7.7029352 -0.97026455
21.099567 9.2902031 -0.98162615
21.323481 8.4057407 -0.97470593
21.366533 8.3452339 -0.97563553
21.467541 7.9217286 -0.97274351
21.294546 8.6659746 -0.97832108
21.280157 8.738122 -0.97904408
21.518312 7.6347032 -0.97016132
21.645065 7.1855736 -0.96881855
21.570713 7.3873143 -0.96850872
21.119492 9.2198906 -0.98110986
28.240767 11.355726 -0.46363896
28.324465 10.824585 -0.46107912
28.318283 10.924341 -0.46174115
29.819094 10.314889 -0.30678755
28.482399 9.87113 -0.45715117
28.609612 9.4643459 -0.45693052
28.381336 10.43943 -0.45926964
29.087421 11.359309 -0.30147183
29.914753 9.5651512 -0.30440688
28.362072 10.736958 -0.46116745
28.290697 11.067149 -0.4623149
29.723513 10.491423 -0.30626577
28.276241 11.164062 -0.46280032
29.882584 9.7622137 -0.30489612
28.257746 11.259508 -0.46319759
28.374628 10.538318 -0.4598875
28.408754 10.247309 -0.4583869
29.5312 10.737679 -0.30466783
29.47291 10.821468 -0.30424386
28.444321 10.058572 -0.45772493
29.898882 9.4566946 -0.30362421
29.046011 11.448434 -0.30137402
28.568363 9.5503597 -0.45666569
29.853245 10.221811 -0.30682015
29.771441 10.403248 -0.30652666
29.397509 10.898744 -0.3035264
29.197439 11.191333 -0.30215669
29.002462 11.536686 -0.3012436
29.5742 10.648237 -0.30483085
28.230886 11.45493 -0.46425682
29.643305 10.568007 -0.3054505
28.395208 10.343362 -0.45882827
29.888355 9.6603184 -0.30447215
28.442692 10.15869 -0.45843112
28.200312 11.545837 -0.46438926
29.88216 9.866045 -0.3054179
28.458796 9.9632063 -0.45732778
29.239281 11.154705 -0.30258065
29.346262 10.984744 -0.30323291
28.3601 10.634439 -0.46032882
29.291029 11.069119 -0.30287415
18.347282 8.9246712 -1.0953757
18.633808 8.0365705 -1.0883436
18.710506 7.757865 -1.0859144
18.706303 7.825068 -1.0873208
17.049042 7.1513581 -1.1969118
18.389091 8.7317133 -1.092435
17.039021 7.2417383 -1.1988883
18.474924 8.5248156 -1.0917957
18.721888 7.6251488 -1.0833572
16.868343 7.8034167 -1.2043619
17.949903 7.2121878 -1.1346711
18.363371 8.7902966 -1.0925629
16.848038 7.9551921 -1.2078588
17.876682 7.5110822 -1.1378659
18.721857 7.6937556 -1.0850194
18.68347 7.8845677 -1.0874487
17.561182 8.4405212 -1.1443943
18.683931 7.9193401 -1.0883436
17.581421 8.3146248 -1.1418941
17.917154 7.3301334 -1.1356435
17.87595 7.6101308 -1.1405051
18.673651 7.984252 -1.0893664
18.49798 8.4650793 -1.0915401
17.932699 7.2708039 -1.1350878
18.33926 8.849679 -1.0928186
17.491587 8.6109629 -1.1452278
17.401936 8.6347456 -1.1403662
17.901409 7.3894372 -1.136199
17.885473 7.4487152 -1.1367548
18.46253 8.5895452 -1.0928186
16.851795 8.0217552 -1.2102916
18.412815 8.6722059 -1.0921793
17.578611 8.3810081 -1.1436998
17.033831 7.2079949 -1.1975199
17.007017 7.2913132 -1.1981282
16.90251 7.6906967 -1.2031456
16.855095 7.9261808 -1.2074028
16.797726 8.0608883 -1.2078588
17.514969 8.5542164 -1.14495
18.608463 8.0950756 -1.0883436
18.428225 8.6441183 -1.0923072
17.529196 8.4930382 -1.1439776
16.892776 7.7503886 -1.2043619
17.878704 7.5781379 -1.1398104
16.84375 7.8563681 -1.2043619
17.966911 7.1535416 -1.1342543
13.502839 3.0180745 -1.4125102
12.168603 3.4858902 -1.4242601
13.084202 2.6991811 -1.4323341
12.283347 3.5817685 -1.4420125
13.034377 2.9030828 -1.4315989
13.144962 4.7572155 -1.357302
12.220419 3.5424509 -1.4327505
12.612377 4.7093959 -1.4450774
13.377779 3.5468924 -1.4129779
13.904981 2.6761751 -1.3776569
13.193185 4.8674998 -1.4391705
12.966217 3.21031 -1.432089
13.05236 2.8211269 -1.4315989
13.813275 3.4091146 -1.3852623
12.724657 4.4574003 -1.4475281
13.884985 2.8082821 -1.3783281
13.842343 2.9357469 -1.3765385
13.719566 3.6156113 -1.3807886
13.430602 3.2241883 -1.4097039
13.862464 2.8491108 -1.3767624
13.818617 3.1811087 -1.3798938
13.031001 2.945322 -1.4323341
13.520791 2.9552701 -1.4129779
13.568868 2.6545453 -1.411341
13.829451 3.0239265 -1.3772097
12.087945 3.4215286 -1.4119108
13.554619 2.6959836 -1.4106393
12.687386 4.5565395 -1.447283
13.039104 2.9902022 -1.4345397
13.024718 3.0084643 -1.4333143
13.534439 2.8248391 -1.411341
13.440665 3.1819811 -1.4097039
13.466198 3.0988083 -1.4104054
13.847604 2.8914428 -1.3760912
12.632701 4.6718006 -1.4458127
12.567431 4.8280525 -1.4450774
12.701224 4.494071 -1.4463028
12.054728 3.3711557 -1.4059932
12.887314 3.4065237 -1.4286581
12.661805 4.5923343 -1.4458127
13.06011 2.7370441 -1.4303735
13.065042 2.7809296 -1.432089
13.840827 2.9808762 -1.3774333
13.077049 2.6549358 -1.4303735
13.41462 3.2649434 -1.4090022
12.688537 4.5120316 -1.4455676
13.820786 3.1359384 -1.378999
13.733116 3.665309 -1.3836966
13.169179 4.8127456 -1.3619993
12.964664 3.1667593 -1.4306186
13.783346 3.3559053 -1.3805649
13.362736 3.5878625 -1.4125102
13.740786 3.6904588 -1.3852623
12.544795 4.8646517 -1.4440972
13.66965 3.9025819 -1.3839202
13.880089 2.76196 -1.3767624
13.556861 2.7851312 -1.4129779
13.80416 3.2692416 -1.3805649
13.555813 2.7405372 -1.4118086
13.370556 3.6350696 -1.4148488
13.343757 3.6728141 -1.4129779
13.008076 3.2639687 -1.4387057
13.917226 2.6332128 -1.3781044
13.613383 3.9328976 -1.3787754
13.812429 3.2253997 -1.3803411
12.990103 3.0865955 -1.4313538
13.524187 2.9115098 -1.4122763
12.729212 4.4141712 -1.4463028
12.59752 4.7489929 -1.4450774
12.974549 3.1260099 -1.4306186
13.529383 2.8681734 -1.4118086
13.215867 4.8287706 -1.4401059
12.589966 4.7913537 -1.4460577
13.821822 3.0677893 -1.3774333
13.707308 3.8203325 -1.3854859
13.717327 3.776716 -1.3852623
13.206708 4.7783942 -1.4370657
13.8926 2.7191 -1.3772097
12.75429 4.3780069 -1.4477731
13.817021 3.3181167 -1.383249
13.479737 3.0573766 -1.4108731
13.723946 3.8714149 -1.3888412
12.999735 3.0457733 -1.4313538
13.736799 3.735678 -1.3861568
13.814057 3.1116271 -1.3776569
13.450594 3.1397433 -1.4097039
13.507564 2.9968619 -1.4125102
13.041493 2.8616941 -1.4313538
12.639854 4.6293712 -1.4448323
17.152985 6.8177414 -1.1946311
17.356909 5.9380813 -1.1859646
18.057987 6.8307114 -1.1320319
16.903908 4.9807377 -1.2140586
18.61585 4.911458 -1.1282817
16.706997 5.7911544 -1.2189021
16.69483 5.9638476 -1.2226152
17.972603 7.0904531 -1.1330043
18.157232 6.4797034 -1.1300874
18.132372 6.4066186 -1.1267537
18.347109 5.8093495 -1.127726
18.125307 6.6615925 -1.1323098
16.558722 6.6594768 -1.2323017
17.566616 4.9798026 -1.1794268
16.929035 4.9304128 -1.2148659
18.037914 6.8555083 -1.1313374
16.711315 6.0884972 -1.2272971
18.554586 5.1455288 -1.1284205
17.109812 6.9253755 -1.1946311
17.586012 4.9256639 -1.1797308
17.16017 6.6960988 -1.1917422
18.611891 4.9730191 -1.129115
17.448605 5.6951985 -1.1867248
18.118034 6.5943475 -1.1302263
16.726332 5.8568478 -1.2221308
18.457174 5.4636359 -1.1280037
16.608679 6.3184414 -1.2260056
18.155546 6.5435095 -1.1314764
17.347212 6.1179228 -1.1897657
16.847033 5.2239532 -1.2153504
18.428204 5.5812507 -1.1284205
17.454046 5.4553576 -1.1815554
17.453125 5.2751064 -1.1774501
18.401047 5.636178 -1.127726
16.732237 6.0366416 -1.2274585
16.611067 6.3791928 -1.2279427
16.574011 6.6052051 -1.2318175
17.599476 4.8698659 -1.1795787
17.067736 7.0962396 -1.1966077
16.889795 5.0632119 -1.2148659
17.457756 5.3963976 -1.1804911
17.080719 7.0388012 -1.1958475
18.574505 5.088275 -1.1286982
17.166498 6.5746512 -1.1888534
17.434628 5.5697517 -1.1827716
18.005644 6.9730401 -1.1321709
17.366348 6.0633898 -1.1897657
17.155756 6.7565336 -1.1931107
17.440628 5.5113578 -1.1818594
18.484631 5.3771639 -1.1281427
17.44982 5.3339772 -1.1785144
16.85384 5.1680593 -1.2145431
16.600231 6.4349604 -1.22875
16.944447 4.8771906 -1.2148659
18.518053 5.2609143 -1.1281427
16.578079 6.4863458 -1.2285886
16.844269 5.3393784 -1.2179334
16.585415 6.5494246 -1.2310102
18.505264 5.3201776 -1.1284205
16.840048 5.2798462 -1.2161574
17.989218 7.0317636 -1.1325876
16.544209 6.7747593 -1.2347233
17.349483 5.9964709 -1.1868769
16.734142 5.9187155 -1.224391
17.171816 6.6385765 -1.190982
18.584625 5.0283203 -1.1282817
18.519129 5.1983719 -1.1270314
18.474247 5.4056277 -1.1280037
16.624174 6.2944717 -1.2264898
16.907528 5.0106978 -1.2150276
16.881433 5.1185694 -1.2155118
17.100899 6.9843578 -1.1956954
18.37944 5.69277 -1.1274482
16.559874 6.7204885 -1.2342389
18.43037 5.5187168 -1.1273093
17.439823 5.631814 -1.1845962
17.122223 6.8678927 -1.1938708
18.025599 6.9157257 -1.1320319
18.370983 5.7534738 -1.1281427
10.050476 2.8242922 -1.5497751
11.555175 4.7289209 -1.4818579
11.824014 4.1792464 -1.4894141
9.8938551 3.1018538 -1.5382303
9.8123283 4.5715775 -1.5197161
11.337186 3.3670106 -1.511972
11.632092 3.592761 -1.5031617
11.87038 4.0701742 -1.4904934
11.966122 3.8317523 -1.4926524
11.136556 3.8675232 -1.5064675
10.182403 3.8398163 -1.5285342
9.8760509 3.1645606 -1.538551
11.526394 3.9001427 -1.5023212
11.226389 3.6435704 -1.5084955
10.146205 2.6287842 -1.5565096
11.622639 3.629879 -1.5034418
11.166588 3.7799435 -1.5064675
9.9687109 2.9370844 -1.5420785
11.788192 4.2501154 -1.4880646
10.100632 3.9912364 -1.5251894
11.885126 3.2176156 -1.4583796
9.9462557 4.3518801 -1.5245813
10.292494 3.5704842 -1.5303587
10.969929 4.3391199 -1.5076263
11.6844 3.4886749 -1.5059627
10.824607 4.5995717 -1.5024116
11.778622 3.2166359 -1.5082036
11.467143 4.0413671 -1.5009207
11.483519 4.0066376 -1.5014809
11.154268 3.8344367 -1.5073366
11.279412 4.4803653 -1.4978395
10.088043 4.0229468 -1.5251894
11.766841 4.3261342 -1.4888743
11.728283 4.3958387 -1.4872552
10.817369 4.6165681 -1.5024116
10.756692 4.7513366 -1.5021219
10.079016 4.0561118 -1.5257975
11.936691 2.642952 -1.5104445
9.8867817 4.4372931 -1.5215406
11.332243 3.4043043 -1.512841
10.213738 3.7785182 -1.5297503
11.840827 4.1433825 -1.4899538
11.258498 3.5759351 -1.5099441
11.103839 4.0131788 -1.5090748
10.529628 3.1235867 -1.5440416
11.085611 4.8324351 -1.4916769
11.943008 2.7232275 -1.5138059
11.909112 2.8338141 -1.5126855
11.928329 2.6804368 -1.5104445
9.8621683 4.4821868 -1.5209326
10.47895 3.2162552 -1.5406969
10.212577 3.7416229 -1.527622
11.521573 4.7999091 -1.4813181
11.787827 4.2918444 -1.4899538
11.65657 3.5602798 -1.5051224
11.74588 3.3269577 -1.5079235
11.348394 4.3026423 -1.4978395
11.119394 4.7642541 -1.4922372
11.392638 4.2581854 -1.5014809
11.891958 3.9942613 -1.4899538
11.035728 4.1857052 -1.5084955
10.072835 2.7284181 -1.5491338
9.7835283 3.3739362 -1.5350233
9.7766132 3.4059432 -1.5356647
10.056135 4.1020584 -1.5251894
10.035894 4.1306019 -1.5239732
11.731563 3.3627462 -1.5073633
11.957189 3.2772939 -1.4699838
11.554789 3.8088772 -1.5020412
10.074525 2.7968924 -1.5523406
10.566194 3.0264113 -1.5452578
11.611176 3.666378 -1.5034418
9.8540964 3.2259374 -1.5382303
11.521974 2.8751159 -1.4608645
11.900098 3.9762018 -1.4902235
11.328522 4.3767276 -1.4989599
11.145364 4.713356 -1.4927974
11.110168 3.9367692 -1.5061778
11.100739 4.7975817 -1.4916769
11.546522 3.8464165 -1.5026014
11.214705 4.5774417 -1.4944781
11.076292 4.0426502 -1.5067573
11.598839 2.7033832 -1.5241396
11.199517 3.7127938 -1.5079161
11.548851 2.8241134 -1.4628253
10.669714 2.8217504 -1.5522515
10.664276 2.7486846 -1.5486026
11.98188 3.7953322 -1.4931921
11.576107 3.7756455 -1.5034418
10.548865 3.0932968 -1.5455619
11.078404 4.0828667 -1.5090748
10.906528 4.4334202 -1.5041499
11.293593 3.4702466 -1.5102338
11.605257 3.7046535 -1.504282
11.39854 4.2195988 -1.5003605
11.44711 4.1153607 -1.5017611
11.578496 3.7361948 -1.5020412
10.577503 3.0656912 -1.5486026
9.8673973 4.4658713 -1.5206285
9.8356047 4.5448937 -1.5212365
11.624331 4.5454011 -1.4813181
9.8934774 3.1358819 -1.5398337
11.344062 4.3418303 -1.4992399
11.366248 4.289032 -1.4995202
10.281226 3.6027994 -1.5303587
11.877474 4.0309658 -1.4896839
9.8372688 4.5081787 -1.5191081
10.006341 2.9139628 -1.5468889
9.9722958 4.2517109 -1.5221488
10.120337 2.6730692 -1.5542648
10.655589 2.7821717 -1.5486026
10.87523 4.5405636 -1.5058881
10.729046 4.7795005 -1.5000941
10.129189 3.9291363 -1.5257975
9.8317566 3.287168 -1.5379095
10.948884 4.370647 -1.5064675
11.435986 4.1519794 -1.5020412
11.451751 3.0322292 -1.514869
10.892546 4.4676652 -1.5041499
11.541843 2.8608596 -1.4631054
10.256823 3.6304359 -1.5282302
11.529208 3.8607504 -1.5009207
11.185916 3.7473433 -1.5076263
10.904081 4.5123982 -1.5082058
11.269676 3.5405495 -1.5099441
11.133695 3.9057479 -1.5079161
11.105203 3.9743011 -1.5073366
10.715784 4.8139882 -1.5003837
9.7940826 3.3431761 -1.5350233
10.933264 4.404284 -1.5061778
11.60107 4.6205382 -1.4821278
11.235894 3.6076851 -1.5082058
9.739872 4.6876283 -1.5172837
11.166259 3.7993777 -1.5073366
11.863154 4.1093893 -1.4913031
11.42483 3.1020608 -1.5137103
11.432608 3.0656474 -1.5134206
10.049618 2.8922575 -1.5526613
9.7365379 3.4780021 -1.5334198
9.80828 3.3136468 -1.5356647
11.579137 4.6540184 -1.4810482
11.45812 4.0787067 -1.5014809
10.340295 3.4421268 -1.5309668
11.342461 3.3491991 -1.511972
11.911695 2.8740287 -1.5143663
11.406524 3.2127907 -1.5154485
11.6972 3.4525168 -1.5062429
10.094693 2.7683346 -1.5542648
10.011926 4.1575332 -1.5221488
10.017028 4.1966505 -1.5251894
11.250589 4.50985 -1.4955984
11.51783 3.9376221 -1.5028814
9.7777166 4.6681314 -1.5212365
10.59466 2.9986219 -1.5482986
10.439686 3.2760751 -1.5376561
11.430317 4.1906271 -1.5031617
10.301791 3.5374873 -1.5300546
9.9129858 3.0736568 -1.5398337
11.292089 3.5086279 -1.5116823
10.50841 3.1532183 -1.5422173
11.921807 2.7973018 -1.5132457
11.367085 3.2789545 -1.5125513
11.920061 3.9412723 -1.4913031
10.791784 4.6860085 -1.502991
10.695195 4.8451886 -1.4995145
10.183315 3.8036289 -1.5267098
11.426485 3.1410575 -1.5154485
11.768001 3.1343446 -1.5037218
10.118636 3.9616621 -1.5261017
11.543927 4.7667022 -1.4823976
10.386133 3.3851044 -1.5349196
11.203928 4.6141648 -1.4950383
10.665202 2.7131977 -1.5473863
11.310124 3.4364598 -1.5111028
11.70143 4.4277773 -1.4853661
11.755106 3.2498996 -1.5062429
10.14886 3.9001462 -1.5270139
11.622711 2.6704447 -1.5264573
10.498452 3.1862137 -1.5422173
9.8439112 3.256882 -1.5382303
10.235666 3.6954858 -1.5285342
10.22985 3.7115586 -1.5285342
10.649347 2.8521638 -1.550427
11.6552 4.515265 -1.4837469
10.455587 3.2450302 -1.5385684
11.957799 3.8705366 -1.4931921
11.49231 3.9692366 -1.5009207
11.128841 4.7269659 -1.4913968
9.9607048 4.2838025 -1.5224528
10.691626 2.6485362 -1.5489067
9.947197 4.3150764 -1.5224528
10.360437 3.4127417 -1.532487
11.615596 2.6304572 -1.5241396
9.9349174 3.0291963 -1.5411165
10.63652 2.8845646 -1.5498188
11.93804 3.905638 -1.4921126
10.985353 4.3053503 -1.5079161
10.81009 4.6536407 -1.5035703
11.305496 4.4086819 -1.4975593
9.7744884 4.6288891 -1.518196
10.431226 3.3094568 -1.5379603
9.9244814 3.0430756 -1.5401545
9.9216967 4.3782897 -1.5227569
10.851785 4.5708833 -1.5044396
9.7567291 3.4506662 -1.5350233
11.754369 3.2894995 -1.5076435
11.611839 4.5826254 -1.4815879
11.178415 4.6447563 -1.4933577
10.758866 4.711988 -1.5000941
10.622809 2.9346528 -1.5498188
11.723187 3.4202235 -1.5084838
10.409079 3.3203897 -1.5352236
11.056242 4.1142187 -1.5076263
11.676733 4.4814539 -1.4848263
11.432572 2.8931329 -1.5070469
10.694749 2.6850252 -1.5507311
10.996976 4.2701073 -1.5076263
11.403207 3.1732585 -1.5134206
11.508261 4.8368549 -1.4815879
11.913181 2.7557831 -1.5107248
11.692607 4.4454508 -1.4850961
11.379236 3.2437625 -1.512841
10.153678 3.8654149 -1.5257975
9.7619267 3.4180565 -1.5340613
9.9837847 4.2195892 -1.5218446
11.015126 4.2175379 -1.5073366
11.207362 3.676368 -1.5073366
11.352925 3.3135517 -1.511972
10.064394 4.0870061 -1.5254935
9.9042854 4.4078197 -1.5221488
11.67338 3.5253739 -1.5059627
9.9557343 3.0013628 -1.5430406
11.039557 4.1475468 -1.5070469
11.230862 4.5429363 -1.4947582
9.9613276 2.9689498 -1.5423993
11.812693 4.2170324 -1.4896839
9.8566618 3.1925511 -1.5369475
11.775294 3.1759748 -1.5062429
10.344407 3.4796703 -1.5333992
11.728544 3.4018056 -1.5084838
10.10044 2.7018156 -1.5523406
10.252805 3.6653233 -1.5294464
10.122612 2.6566732 -1.5539441
10.598832 2.9100461 -1.5452578
10.400476 3.3536832 -1.5355277
11.163764 4.6798596 -1.4933577
11.573647 4.6940804 -1.4823976
10.586904 2.9604928 -1.5455619
11.742036 4.3589683 -1.4872552
9.8014908 4.604074 -1.5203245
11.286067 4.4419928 -1.496719
10.329685 3.5108683 -1.5327911
10.052955 2.8590624 -1.5516993
11.015882 4.2376599 -1.5084955
7.5054884 1.1804495 -1.6983794
7.7826724 1.4690682 -1.6842241
8.284483 0.4201133 -1.6515284
9.3959923 1.2440943 -1.6250223
8.0415668 0.44041812 -1.6741991
7.6088452 2.3907442 -1.6565077
8.2518682 1.3500494 -1.6659687
7.5564365 0.6701228 -1.6955374
9.185854 2.1870053 -1.6184015
7.9770918 1.1075958 -1.6741991
8.6247978 1.0446178 -1.6564124
7.9012127 2.3260958 -1.6387872
9.4106102 1.0060786 -1.6224476
8.5326796 2.4386647 -1.6284188
8.9008484 1.4699098 -1.6578853
8.0367632 0.89799917 -1.6817179
7.9562402 1.4251723 -1.6808332
8.6631718 0.47307178 -1.6539692
8.8436785 1.7619148 -1.6570994
8.0507002 0.41558152 -1.6759682
8.2866821 0.68166548 -1.6557757
9.3995886 1.0347558 -1.6209763
8.5672464 1.9115028 -1.6751431
8.1324759 2.0504446 -1.6714898
8.7628098 2.0775235 -1.6547422
9.2156305 2.1635935 -1.6228154
8.8352919 1.861443 -1.6594568
7.8540721 0.65267694 -1.6751875
7.8920593 2.3773682 -1.6400611
9.4079351 1.5024117 -1.6342179
8.2561111 0.71841902 -1.6498296
9.3820391 1.3172975 -1.6242868
8.5849495 1.7040954 -1.6698496
8.2121258 2.5789249 -1.6397176
7.7897353 1.1309336 -1.6729285
7.548439 2.1262281 -1.6661512
7.5383358 2.1617732 -1.6661512
7.7417092 1.5371306 -1.6778986
8.4747982 2.5523257 -1.6237041
7.4845057 1.2132699 -1.6945901
9.7258587 1.7872472 -1.6169339
7.9472442 2.258395 -1.6443082
7.8210249 0.92298704 -1.6738321
7.7840776 1.4187665 -1.6824168
8.5625706 1.7556089 -1.6674064
8.3934479 2.1653025 -1.6523403
9.3360806 2.0687158 -1.6408386
8.0172234 0.65414792 -1.6719877
8.5740757 1.5622646 -1.662113
8.6371126 0.88125592 -1.6551907
8.5554733 1.9370923 -1.6739213
8.8374519 1.6168821 -1.6504204
8.1718884 1.6955743 -1.662571
9.7159166 1.7539284 -1.6141235
9.6962709 2.1144958 -1.6232578
7.8052635 1.0332097 -1.6733803
8.2685928 2.440572 -1.6425679
7.8184628 0.72407418 -1.6684102
7.8594899 2.0555091 -1.6901213
7.6963038 1.9344735 -1.6878388
8.6168098 1.1537094 -1.6576338
8.2844019 0.52453315 -1.6528027
9.4128571 2.5071933 -1.5905852
8.6415491 1.5186958 -1.6743286
9.3782148 1.7862095 -1.6378959
7.8264213 2.5602367 -1.6383623
8.0420761 0.52921677 -1.6755259
9.5553074 2.1944129 -1.6018274
8.3315868 2.261271 -1.6450108
8.8424883 1.5891079 -1.6504204
8.021821 2.1573591 -1.6540767
7.9691091 1.3629799 -1.6812756
8.8472462 1.7337532 -1.6567067
7.8007398 1.0077049 -1.6715732
8.9165487 0.43751082 -1.6390269
8.1950417 1.5798844 -1.662571
8.0359125 0.50343007 -1.6737567
9.4387102 0.90428042 -1.6257579
8.2911749 0.82642943 -1.659598
7.6931539 1.8824265 -1.6842241
8.8564262 1.8078212 -1.6614213
7.6845198 1.957221 -1.6864834
8.2914381 0.47268009 -1.6536521
7.6943984 1.7933614 -1.6797059
9.0092688 2.5528624 -1.6036888
8.2554722 1.0067041 -1.6562001
9.3648777 1.8447146 -1.6375281
8.5175867 2.3766639 -1.6221327
8.5570965 2.0509131 -1.6796221
8.4865379 2.5267985 -1.62449
7.8466997 0.41685513 -1.6697655
7.9271331 1.5488271 -1.6795064
9.1585741 2.2413714 -1.6158268
8.6268253 1.4184141 -1.6678135
8.0374546 0.4781836 -1.6737567
7.7897587 1.3189243 -1.6797059
8.8811111 1.4810441 -1.6543492
7.8309493 2.5209577 -1.6366636
9.380867 1.4074379 -1.6264937
8.0891371 2.0937569 -1.6646945
8.6795187 2.1301124 -1.6409913
7.6513505 2.2989123 -1.6596037
8.3884983 2.1921597 -1.6527475
8.8684387 0.67300457 -1.6323477
8.0345373 0.55405605 -1.6741991
9.7250719 1.8344957 -1.6183393
9.4037361 0.81144708 -1.617666
7.879117 2.0342646 -1.6932173
9.4479761 0.4426063 -1.6213441
9.4249506 0.69411385 -1.6198729
7.6311669 2.3452013 -1.6582768
7.4863095 1.2619171 -1.6969584
7.7492623 2.1570141 -1.6719877
8.3096762 2.3114541 -1.6433822
8.0040188 0.77980089 -1.6715454
7.5531964 2.5306013 -1.6542963
8.5752325 2.2769079 -1.6280261
8.26612 0.6931085 -1.6515284
7.8862567 1.9175402 -1.6883522
9.3760557 1.7552722 -1.6364248
9.7165728 2.5928264 -1.5792335
7.5360961 0.56096929 -1.6884325
8.6698847 0.41883445 -1.6547835
7.8568864 0.5660097 -1.6742839
7.8063407 1.0832735 -1.6751875
7.9037337 1.6735644 -1.6799488
9.0219765 2.5871706 -1.6077349
8.627532 0.83917129 -1.6523403
8.2574682 1.0991802 -1.6591731
9.5035458 2.2771153 -1.5962063
8.2809429 0.5765757 -1.6528027
8.8334112 1.8320992 -1.6578853
7.7847686 1.5201384 -1.6869348
7.5915346 2.4641726 -1.6578345
9.4436464 0.93472445 -1.6272292
9.7254095 2.0250053 -1.6250143
7.6245995 2.0701177 -1.6797059
7.7141242 1.594777 -1.6742839
8.5743446 1.8143077 -1.6722927
7.5143585 1.1093721 -1.6979055
8.1564312 1.96135 -1.6719146
9.4148064 1.533887 -1.6364248
7.8068919 2.0941124 -1.6808332
8.2544861 1.1780348 -1.660872
8.5022469 2.4734218 -1.62449
7.8810787 1.863856 -1.6843716
8.6214676 0.98926014 -1.6543763
7.5036058 0.87975323 -1.6879588
7.5436339 0.53772563 -1.6898534
7.5053205 1.1562614 -1.697432
7.8235645 0.84862155 -1.6724766
8.1647863 1.9091843 -1.6710652
9.5310974 2.2204442 -1.5986655
7.7908711 2.116044 -1.6786219
8.6177435 1.4725904 -1.6678135
7.932591 2.2812126 -1.6426095
7.6499004 2.0511398 -1.6842241
9.4048414 1.4716135 -1.6327465
8.16681 1.7481003 -1.6638452
7.5381699 0.58495575 -1.6893798
8.2472982 2.5048585 -1.6421605
7.9432521 2.243808 -1.6426095
7.5511498 0.41916904 -1.6898534
8.8381157 1.6456962 -1.651599
8.4567204 2.6049533 -1.6233114
7.785531 1.1053838 -1.6711211
7.8413701 0.75096285 -1.6742839
8.9179859 0.83178025 -1.6449201
7.4839759 2.2228491 -1.6580181
7.776557 1.2916311 -1.6756395
7.8038669 0.98319477 -1.6715732
8.8164444 2.0025609 -1.661814
9.0823822 2.3896768 -1.6088383
7.8009944 1.4978427 -1.6896461
9.4041243 1.562477 -1.6353211
7.7039075 1.8210597 -1.6833205
8.0106583 0.92049438 -1.6764104
7.9036722 1.7385601 -1.6830448
8.8735638 1.5371419 -1.6547422
9.0090494 0.86855489 -1.6637785
9.4199772 0.87256962 -1.6217121
8.1926241 1.6328486 -1.6642697
8.9057236 0.64759779 -1.6394197
9.3772297 1.6945553 -1.6345856
7.7822876 1.1548395 -1.6720247
9.3739834 1.5876747 -1.6305395
7.9950376 0.96960378 -1.6741991
7.7825012 1.2675024 -1.6760912
8.1760883 1.7232306 -1.6646945
8.5212936 2.4499187 -1.6268474
7.8943672 1.7625179 -1.6821601
8.5502768 1.8794593 -1.6702567
7.7143126 2.1733255 -1.6653534
9.3842487 1.2725258 -1.623551
7.6868329 2.1915984 -1.6604882
9.3621092 1.9667536 -1.6415741
9.0575647 2.4746404 -1.6084706
9.4153986 0.63391972 -1.6172982
8.8823452 1.1817635 -1.6457059
7.4973621 1.3123461 -1.701695
9.3894186 1.1232977 -1.6209763
9.4493198 0.41292253 -1.6213441
8.290801 0.62958872 -1.6557757
8.7000132 2.1206064 -1.6445272
7.9567614 1.2068541 -1.6728722
7.7845092 1.2051733 -1.6742839
7.6785226 2.2415075 -1.661815
7.5795059 2.1092069 -1.6720247
7.7897696 2.6026101 -1.6336906
8.6634312 0.59605497 -1.6555978
9.3696308 1.6475754 -1.6316431
8.6711578 0.39159268 -1.6547835
9.1598415 2.2111897 -1.6147234
7.5234461 0.9421314 -1.6945901
7.9702024 1.2602439 -1.6777374
8.0498781 0.46627301 -1.6764104
9.4494038 2.4533832 -1.5944496
7.5439849 0.74072021 -1.6941165
7.5194755 0.69054031 -1.6870115
8.2840195 0.93097746 -1.6604474
8.6574287 0.67767745 -1.6555978
9.3880777 1.2880907 -1.6246545
9.2884207 2.1193655 -1.6342179
8.2896652 0.3942599 -1.6523777
7.9672179 2.2235193 -1.6464318
7.9549308 1.5284072 -1.6848139
8.9230413 0.38163444 -1.6398126
8.889904 1.1543485 -1.6464916
7.7691522 2.136322 -1.6750836
9.4146175 2.5234895 -1.5916392
8.9189682 1.5160433 -1.6629928
7.9000506 1.5950751 -1.6755259
8.2689533 0.77186394 -1.6536521
8.6152258 1.2501087 -1.660077
8.8430147 1.7041202 -1.6547422
7.8413143 0.90035278 -1.6778986
7.9031096 1.5698638 -1.6750836
7.5314202 0.8591246 -1.6941165
9.1256208 2.3246439 -1.6136199
9.2530079 2.1418056 -1.6287006
8.1622934 2.0034418 -1.6753122
7.7832379 1.3681779 -1.6801575
8.8844576 1.2388717 -1.6476703
9.3880262 1.183024 -1.6220798
8.1671238 1.8018664 -1.6663933
7.5716348 0.46812445 -1.6955374
8.8817654 1.3524452 -1.6504204
7.8331552 0.77503574 -1.6729285
7.9977574 0.99545628 -1.6755259
8.91926 0.56410813 -1.6409913
7.6866279 1.868071 -1.681965
7.8865557 1.8913741 -1.6870253
7.5036492 1.240658 -1.700274
7.5321517 0.83523899 -1.6936429
7.8397598 0.82542372 -1.6756395
7.6758432 2.006439 -1.6873869
7.7049003 1.6940614 -1.6769948
7.7933745 0.95705724 -1.6684102
9.2950335 2.0901766 -1.6342179
8.4944334 2.5001268 -1.62449
8.5864429 1.5924563 -1.6657776
7.8227973 0.87340403 -1.6729285
8.2722502 2.4558079 -1.6441965
7.5440397 0.60928702 -1.6912744
8.9008722 0.88666111 -1.6425627
9.0323792 2.5288262 -1.6066314
7.9741173 1.40258 -1.6839292
8.6219473 1.0992957 -1.6572267
7.5185227 0.96550816 -1.6941165
7.9882598 1.0836048 -1.6759682
7.5559816 0.81393391 -1.698853
9.410965 0.72278416 -1.617666
8.2955389 0.87950855 -1.6617216
7.8882957 2.4032764 -1.6409105
8.6334953 0.73035175 -1.651526
8.2531261 1.0722519 -1.6574744
7.86938 0.39319488 -1.6747359
7.7118053 1.9126006 -1.6900977
7.9832244 1.1340523 -1.6764104
9.1314735 2.3414426 -1.6154591
8.6184664 1.4448522 -1.6669992
7.7787595 1.2293274 -1.6738321
8.6242743 1.1271541 -1.6584483
7.7844815 1.2552768 -1.6760912
8.0308113 0.57914644 -1.6737567
7.6067772 2.0909986 -1.6769948
7.8788366 2.4274788 -1.6404859
7.8306251 0.67557502 -1.6702175
8.9137859 1.4145622 -1.6586711
8.2345734 1.5070761 -1.6680923
7.9695063 1.3372772 -1.6803911
9.3955965 1.1540149 -1.6228154
7.5148611 1.0371416 -1.6955374
8.2486963 1.045354 -1.6557757
7.8797259 1.9684862 -1.689679
9.3815231 1.7258093 -1.6364248
8.2664881 0.79783612 -1.6536521
7.9659739 1.3109396 -1.6786219
8.0051851 0.70380068 -1.6702185
8.2635756 0.95503545 -1.656625
7.7139106 1.5568936 -1.6724766
9.7305374 1.930611 -1.6225551
7.8596973 2.4757695 -1.6396365
8.5531807 1.781693 -1.6665921
8.9085131 0.47922522 -1.637848
8.6280375 1.0175146 -1.6564124
9.3630075 2.0284848 -1.6441488
9.3997078 1.4405416 -1.6309073
7.5181608 0.90547287 -1.6922218
8.6459827 0.90964848 -1.6576338
7.8034792 2.5799489 -1.6349646
8.2219458 1.478138 -1.6642697
8.2827129 0.55055523 -1.6528027
8.2522631 1.4300573 -1.6689416
8.0328465 0.63007092 -1.6750836
7.5211368 0.71454096 -1.6879588
7.5681887 0.49177641 -1.6950637
7.6923938 1.7674614 -1.6778986
8.9115734 0.5917533 -1.6398126
7.500988 2.6051033 -1.6485466
8.3005085 0.9063921 -1.6634203
7.8944874 1.8408854 -1.6861408
8.2924261 0.85286289 -1.6604474
7.9032388 2.3536685 -1.6409105
9.5890541 2.170399 -1.6067458
7.8602867 0.51663554 -1.6742839
8.4648628 2.5783703 -1.6233114
8.1747818 1.8304654 -1.6693662
9.1366892 2.2969346 -1.6143557
9.4172812 0.66378319 -1.6180338
7.7719145 1.4418197 -1.6806093
8.1746836 1.6026641 -1.6591731
9.4008112 0.7516976 -1.6161946
7.61408 2.4451277 -1.6613728
8.1764593 1.8848212 -1.6723392
7.6695027 2.0305421 -1.6873869
7.8345585 0.80002195 -1.6738321
8.4343386 2.1477242 -1.6596698
8.8720779 1.1237677 -1.6421698
9.5001745 2.3078785 -1.5969088
8.6113596 1.2219154 -1.6584483
8.0107021 0.72968137 -1.6719877
9.3856354 1.3479027 -1.6257579
9.4265223 0.94794095 -1.6242868
8.6685266 0.44606796 -1.6547835
8.8348312 1.6738161 -1.6519921
8.8838787 0.70220149 -1.6358836
8.5590372 1.8391489 -1.6702567
8.6194563 0.75641131 -1.6490829
9.4290047 0.57537454 -1.6191373
7.8492403 0.5902732 -1.6729285
8.6188126 1.3060066 -1.6625202
8.8326874 1.9479594 -1.6625999
8.2393856 2.5307624 -1.6421605
8.2801552 0.49816826 -1.6515284
7.9197507 2.3045006 -1.6413352
7.8536515 0.46669155 -1.6720247
8.4642582 2.1412761 -1.6653705
7.6764431 1.9808744 -1.6860313
8.6362057 0.96350545 -1.6568195
7.6200404 2.3679962 -1.6573923
8.8428335 1.8920226 -1.662207
9.3928766 2.5810397 -1.5905852
7.9855828 1.1856576 -1.6786219
8.6630974 0.54135698 -1.6547835
9.3747673 1.6636943 -1.6331142
8.6184311 0.81092882 -1.6498972
7.6925125 1.6408147 -1.6715732
9.3987589 1.0944928 -1.6220798
8.8852272 1.3815269 -1.6519921
8.1804342 1.8586994 -1.6719146
7.8647361 0.36821812 -1.6733803
8.6041889 1.3868637 -1.662113
7.9758272 1.2868598 -1.6799488
9.0440664 2.5014982 -1.6073672
8.351306 2.2104015 -1.6462325
8.6243382 1.3346053 -1.6645561
7.532289 2.5499032 -1.6512003
7.8618326 2.4493403 -1.6383623
9.3940086 1.2137979 -1.623919
7.89957 1.7116269 -1.6808332
7.4940495 2.1747086 -1.6571145
8.8775749 0.80001432 -1.6362766
9.4176331 0.97692585 -1.6231833
7.6848731 1.8421237 -1.6801575
8.240962 1.2819638 -1.6612967
9.4740162 2.3646944 -1.5948011
9.733654 1.9948294 -1.6253656
9.103157 2.3646216 -1.611413
8.0143442 0.86993051 -1.6759682
8.2559128 1.1253726 -1.659598
8.8624563 0.77064472 -1.6327406
7.8728633 2.0194333 -1.6910058
9.3566961 1.9349136 -1.6393672
7.5430207 0.64500284 -1.691748
8.8812466 0.758165 -1.6362766
9.7288208 1.898541 -1.6211498
8.6305037 1.169392 -1.6608913
7.8907342 1.8138614 -1.6839292
9.3962908 1.0642804 -1.6209763
8.591835 2.2524128 -1.6299903
7.6602283 2.2622743 -1.6591612
7.5454865 0.76482189 -1.6950637
7.5582495 0.3957693 -1.6912744
8.6672144 0.56897098 -1.6560051
7.9670649 1.4530078 -1.6843716
7.5183473 2.5847273 -1.650758
9.4871368 2.3363137 -1.595855
9.5259914 2.2508264 -1.5990168
8.1842966 1.6445777 -1.6629956
8.6733713 0.50099659 -1.6564124
9.6155176 2.1604536 -1.6109617
9.4128847 0.84206891 -1.6198729
7.6478195 2.3240831 -1.6604882
8.2361765 1.4539714 -1.6663933
7.5633368 0.3722268 -1.6922218
8.149231 1.932602 -1.6689416
8.2426891 1.3087472 -1.662571
8.2021179 2.604111 -1.6393102
8.9187117 0.50784439 -1.6402054
8.2693892 0.7457146 -1.6532271
7.8521471 0.49136069 -1.6720247
8.2889767 0.44643307 -1.6528027
8.7864914 2.0539494 -1.6582781
9.3616486 1.9974 -1.6426775
7.9083662 1.6226718 -1.6786219
8.247632 2.4766631 -1.6405319
7.8341532 2.5491381 -1.6392117
7.887763 1.9441959 -1.6901213
7.8462892 2.4986861 -1.6383623
7.9918847 1.0713216 -1.6764104
8.1803894 1.777838 -1.6680923
8.206728 1.5287136 -1.6629956
9.3863773 1.6201713 -1.63385
8.9151154 0.53574884 -1.6398126
8.0115986 0.94612843 -1.6772951
7.5375843 2.1359818 -1.6643438
9.7286377 2.0575581 -1.6267709
8.5566654 2.3008127 -1.6256685
7.7401118 1.5747396 -1.6792541
8.2443285 1.335554 -1.6638452
8.1647453 1.9768828 -1.6744628
9.3857269 2.5474348 -1.5877748
7.9932771 1.0459512 -1.6759682
8.2526798 1.2042357 -1.6612967
8.3044405 2.3946004 -1.6470468
8.2891932 2.3337924 -1.6405319
7.5038733 1.0596318 -1.6936429
7.7807326 1.054915 -1.6684102
9.0043716 2.6127384 -1.6058958
8.0380116 2.1346273 -1.6562001
8.8843842 0.91325825 -1.6398126
8.2519407 1.0194362 -1.6557757
7.5588531 0.51499516 -1.6931691
8.5931692 2.223954 -1.6288118
7.8508501 0.54081541 -1.6724766
8.8786821 1.0538226 -1.641777
7.8791685 1.9946913 -1.6910058
9.074831 2.4181962 -1.6088383
7.50775 0.988083 -1.6922218
8.5642071 1.727916 -1.6665921
8.829175 1.9181485 -1.6606355
8.8636856 0.99566954 -1.6374552
9.4238663 0.7834146 -1.6209763
7.6998086 1.7437118 -1.6783502
7.5565701 0.78998345 -1.6983794
8.2553005 1.3772274 -1.6676675
7.8478761 0.70184231 -1.6747359
8.5506115 2.0777845 -1.6796221
8.8784695 0.96906292 -1.6398126
8.8780518 1.0254875 -1.6409913
8.8998852 0.61909485 -1.637848
8.0144262 0.79356265 -1.6741991
9.36658 1.9063011 -1.6401029
8.635746 0.70322692 -1.651526
9.4513388 2.4222355 -1.5933957
8.2585249 1.2315698 -1.6634203
8.2868319 0.65548223 -1.6553507
7.7855768 1.3433921 -1.6797059
8.239151 1.2552005 -1.6600226
7.9885821 2.175442 -1.6481305
8.2239237 2.5542872 -1.6405319
8.2863693 0.38106361 -1.6515284
8.7238045 2.0973418 -1.6480631
9.3852425 1.3779618 -1.6264937
7.7863307 1.1804237 -1.6738321
8.8840303 1.324254 -1.6500275
7.5235739 1.0866126 -1.6993266
8.0289516 0.60437161 -1.6737567
7.8531356 0.44191486 -1.6715732
8.5621672 1.6157335 -1.6617059
8.1578598 2.0295391 -1.6757371
8.6151266 1.2777524 -1.6608913
8.0092812 0.84390736 -1.6741991
8.2837009 2.3603628 -1.640939
8.575263 1.8567908 -1.6743286
8.1089392 2.071681 -1.6676675
8.0402794 0.38968095 -1.6733145
7.4879127 1.4079183 -1.7035896
9.4410849 0.50174129 -1.6206084
7.9892673 1.160566 -1.6786219
7.5814509 2.513679 -1.6591612
8.8766441 1.2094016 -1.6453129
7.5123072 1.012729 -1.6941165
9.4291134 0.60512507 -1.6195052
7.8994122 1.6467026 -1.6777374
7.9816265 1.4816576 -1.6887945
8.6573706 0.85590535 -1.6588554
8.6595631 0.62312096 -1.6551907
7.9926558 1.0203258 -1.6750836
8.6497555 0.64971519 -1.6535619
7.7052488 1.7195115 -1.6783502
8.9138908 0.45142287 -1.6386337
9.374485 1.8160449 -1.6382637
8.8158474 2.0315559 -1.6629928
8.2470779 1.4025185 -1.6668181
7.4903889 1.3840257 -1.7031159
7.8161521 0.94732338 -1.6733803
7.6742921 2.2140946 -1.6591612
8.5607882 1.9666231 -1.6763645
8.8814697 0.94116741 -1.6398126
7.9609647 2.1948817 -1.6434588
8.8796759 0.72995257 -1.6354909
8.6306648 1.1970477 -1.6617059
8.622035 1.3620025 -1.6649632
7.9551849 1.3863019 -1.6790642
9.3655672 2.0444713 -1.6452522
8.2001667 1.6745155 -1.6676675
7.5091038 1.2901261 -1.7035896
8.8921747 1.2684073 -1.6500275
8.5633717 1.6717856 -1.6641489
9.3809252 2.6094925 -1.5898825
8.4956217 2.1209147 -1.670664
9.3686686 1.8760848 -1.6393672
8.548852 1.9921564 -1.6751431
8.6097651 1.5409251 -1.668628
8.6228848 0.78403407 -1.6503043
7.7082787 1.6694428 -1.676543
8.1711445 1.5487596 -1.6562001
8.2542734 1.1515664 -1.6600226
8.84937 1.5616577 -1.6508132
8.5325794 2.351953 -1.6237041
9.4760914 2.3968325 -1.5965575
7.8906922 1.7877494 -1.6826025
8.6352978 0.93593717 -1.6560051
9.4433842 0.5316304 -1.6213441
7.7090759 1.6190025 -1.6742839
8.5250425 2.0998998 -1.6755502
7.6586852 2.2880201 -1.6604882
7.5994396 2.4140382 -1.6560652
8.2585926 0.9807654 -1.6562001
9.7167006 1.9596322 -1.6211498
8.668663 0.51438379 -1.6555978
9.4504671 0.47249293 -1.6220798
7.5360084 0.91970122 -1.6969584
8.3329821 2.2335494 -1.6437894
8.5531816 2.3287046 -1.6264545
9.1514864 2.2701352 -1.6158268
7.784658 1.3936323 -1.681513
9.4244976 2.4786034 -1.5912879
8.0083704 0.75484264 -1.6719877
8.0673819 2.1152396 -1.6612967
7.8285031 2.0736179 -1.6843716
8.6311865 1.0729433 -1.6584483
9.6530304 2.1369648 -1.6165826
8.2771397 0.60245079 -1.6523777
7.5837569 2.4880085 -1.6578345
7.8473468 0.61493158 -1.6729285
9.4220495 0.56007451 -1.617666
7.9003429 1.698801 -1.6803911
8.8188629 1.9740094 -1.6610283
7.5333939 0.62030584 -1.6889062
8.8706751 1.2938384 -1.6464916
7.9683433 1.2342818 -1.6764104
8.8889589 1.0833303 -1.6445272
8.8879929 1.4391705 -1.6543492
8.8855114 1.1112486 -1.6445272
8.3131256 2.2842858 -1.6425679
8.0228996 0.68001771 -1.6737567
7.8492608 0.63988405 -1.6738321
8.5308542 2.4092114 -1.6264545
9.4545002 0.38340494 -1.6220798
8.8246374 1.7870021 -1.6543492
9.7163486 2.0868847 -1.6257169
7.5439773 0.44252822 -1.6884325
8.2611923 2.4101522 -1.6393102
8.6240978 2.1741858 -1.6323477
8.622715 1.5013629 -1.6698496
7.9750175 1.5063556 -1.6883522
7.4897122 1.1297132 -1.6926955
7.5338068 2.5636339 -1.6525271
8.0351696 0.82118976 -1.6795064
8.5615921 2.023566 -1.6792148
9.0671902 2.446692 -1.6088383
8.6191273 2.2017465 -1.6327406
8.5781889 1.6467465 -1.6661848
8.9159193 0.40941229 -1.6386337
8.6575489 2.1536248 -1.637848
23.466904 7.6386538 -0.90273094
25.268801 9.2351656 -0.71792209
25.096319 9.3210621 -0.87268871
25.160027 9.1652384 -0.87293118
23.414656 7.7846756 -0.9025507
25.249847 8.884738 -0.87252718
25.443197 8.4172459 -0.87381989
23.28758 8.9397707 -0.91471255
25.414728 8.4965124 -0.87373906
23.490784 7.5648856 -0.90273094
23.375048 9.2272644 -0.9230907
