# .PCD v0.7 - Point Cloud Data file format
VERSION 0.7
FIELDS x y z
SIZE 4 4 4
TYPE F F F
COUNT 1 1 1
WIDTH 1510
HEIGHT 1
VIEWPOINT 0 0 0 1 0 0 0
POINTS 1510
DATA ascii
-34.338486 5.9440093 -2.0208032
-34.185978 7.3105865 -2.0278354
-34.967667 6.09128 -1.8362951
-35.259979 5.8001661 -1.8501158
-7.0159636 4.6477766 -1.8977896
-8.2562466 4.1563187 -1.943993
-7.1514049 3.949116 -1.9360182
-6.9753079 4.6842184 -1.8944741
-8.5717201 5.0154586 -1.914978
-8.2885466 3.7345464 -1.955771
-8.770402 4.7504468 -1.9239364
-7.289547 5.5257959 -1.8367031
-8.9768028 5.046432 -1.9136535
-7.2466936 3.4009745 -1.9686093
-7.5056605 5.4343524 -1.8626106
-8.791749 3.9866815 -1.9467037
-8.1214542 4.3150158 -1.9333783
-7.6103797 3.3393364 -1.9722197
-8.1319904 5.49015 -1.8901393
-7.1191134 3.5622447 -1.95681
-8.5177393 4.3570371 -1.9280164
-7.5545411 4.0982103 -1.9413663
-7.5326858 5.3463387 -1.85624
-7.7569828 5.1296401 -1.8698306
-7.2775645 3.7834375 -1.9444485
-7.1879687 3.9106233 -1.9394896
-7.0874653 3.6163032 -1.9557838
-6.9316478 3.3301258 -1.9566602
-8.1412144 3.3929729 -1.9963108
-8.2385778 5.3755941 -1.8954329
-8.3746099 5.1871896 -1.8982832
-8.2465591 4.6351547 -1.9046571
-7.6289773 4.5190706 -1.9038112
-7.4389358 4.249917 -1.9347352
-7.9781737 3.5932348 -1.9792589
-7.131896 4.5333824 -1.9063157
-8.6878653 4.8838024 -1.9223075
-7.3323412 4.8070598 -1.8807678
-7.3805933 4.7398577 -1.8816717
-8.4683914 3.4845333 -1.971133
-8.540451 3.3894258 -1.9783623
-7.7962012 4.341392 -1.9169142
-8.1174479 4.8003802 -1.8982866
-7.0995817 4.5442963 -1.9011053
-8.049509 4.3910446 -1.9271861
-7.5050502 4.6224885 -1.8916118
-7.7593322 4.7037315 -1.9055141
-7.6538601 4.4690728 -1.9029074
-7.5609269 3.402905 -1.9672604
-7.5515513 4.8920078 -1.888265
-8.8974257 5.1499586 -1.9101177
-7.2388597 5.2413893 -1.8745543
-7.1536012 5.3180285 -1.8692468
-7.8184061 3.8060446 -1.9659966
-8.8334122 4.6951365 -1.9300439
-7.5011606 5.4671497 -1.8660083
-7.5767426 4.8745623 -1.8909189
-8.7115526 4.09969 -1.9411826
-7.7706494 4.359158 -1.9137514
-7.8317909 4.5975022 -1.9072834
-7.225688 4.9176154 -1.8744423
-7.0920129 5.0751028 -1.8699244
-8.3924646 3.9797578 -1.9541656
-8.7654839 3.4684191 -1.9855677
-7.9576111 3.62919 -1.9783117
-8.9694233 5.0794625 -1.9156181
-8.6960878 3.5521359 -1.9780489
-8.5874329 4.9885063 -1.914978
-6.9900575 4.1070714 -1.9201491
-7.8369679 4.29986 -1.9205287
-7.4977856 3.5171058 -1.964781
-8.3960886 3.9492459 -1.9519542
-7.0936465 5.059411 -1.8681169
-7.8679891 3.7388184 -1.9697858
-8.6417942 4.2002444 -1.9369352
-8.4520912 4.4243612 -1.9220705
-7.9444036 3.6533647 -1.9778382
-7.8178267 4.6058569 -1.9055141
-7.6330767 4.4891243 -1.9011002
-7.4920697 4.954391 -1.8847269
-8.5918646 4.9730563 -1.9141636
-7.2802224 3.3610086 -1.9722004
-8.0530224 3.5057933 -1.9873112
-8.7052736 3.5399318 -1.9789336
-8.3435154 5.2407422 -1.8986905
-8.2785435 3.7613788 -1.9562228
-7.4588161 5.5083466 -1.8638848
-8.5979137 3.6707897 -1.9678764
-8.0982428 3.4350152 -1.9906269
-8.1572294 3.3695872 -1.9977316
-7.0291123 4.0708833 -1.9241164
-8.7403812 4.80546 -1.9239364
-6.9522567 5.2098827 -1.8622434
-8.8290424 4.657362 -1.925565
-7.3796978 5.0997128 -1.882073
-7.8917127 4.5331531 -1.9117061
-7.9187636 3.6718092 -1.974049
-6.8329587 3.8887169 -1.9306457
-7.1499386 5.3327441 -1.8705736
-7.5544348 4.5715108 -1.8952265
-8.1475677 5.4634905 -1.8897321
-8.9743614 3.7178907 -1.9598696
-7.3021712 4.3721266 -1.9209992
-6.9524822 3.2999232 -1.9582504
-8.1767759 3.3476 -2.0001001
-8.2016649 3.867167 -1.9503491
-8.3002739 4.6312337 -1.9144258
-6.8859773 4.7669444 -1.887843
-7.1734157 5.2978377 -1.8701314
-7.5450177 4.5982757 -1.8965819
-8.4226131 3.9294086 -1.9554924
-9.0397806 3.6456575 -1.9670899
-8.5673971 4.2979321 -1.9318388
-8.4996166 5.1177487 -1.9129422
-8.2370834 3.8050992 -1.9517047
-7.2333941 4.4554291 -1.9172097
-8.5213556 3.7974975 -1.9634537
-7.1459646 5.0293798 -1.8739908
-7.313735 5.1567259 -1.8772079
-8.4190426 3.5573206 -1.9670668
-6.9636025 3.7485104 -1.942958
-7.9760656 3.6073549 -1.9802064
-8.9347343 3.8171182 -1.9602947
-6.9804487 4.1309938 -1.9211409
-7.7294168 4.4161682 -1.911944
-7.2166181 4.9447184 -1.8762498
-7.5087729 4.1654787 -1.9394716
-8.93083 4.5330963 -1.9324872
-7.8757429 4.5569501 -1.9112638
-8.0012531 4.430254 -1.9218788
-8.1233416 3.4155397 -1.9944161
-7.8030596 3.8593736 -1.9683648
-7.8686404 5.080236 -1.8842711
-8.4837866 3.8288391 -1.9585885
-7.912478 3.6991203 -1.9754697
-8.3482885 5.207283 -1.89584
-8.3043976 4.0990729 -1.9479736
-8.335845 3.6617851 -1.9589338
-7.6012106 4.077179 -1.9489448
-8.2431469 4.1822367 -1.943993
-8.3765526 3.6171117 -1.9634521
-7.8775196 4.2579865 -1.9241433
-7.9895372 4.9475584 -1.8910663
-6.8527021 4.8078933 -1.8868957
-6.880631 3.412652 -1.9540101
-6.8234572 4.2879248 -1.9077513
-7.9327798 4.1917906 -1.9282098
-7.2144599 5.2583823 -1.8723429
-7.6507545 3.2999563 -1.9776745
-8.1958704 4.2232847 -1.9386855
-7.1900077 3.8824656 -1.9365141
-7.2632241 5.2242913 -1.8767656
-7.1300244 5.3528457 -1.8696891
-6.9637833 4.7082758 -1.8954214
-7.6847525 4.758256 -1.8975531
-6.8487368 3.4505763 -1.95083
-8.442008 3.9061828 -1.9572617
-8.4646063 3.8522618 -1.9568194
-7.4681854 3.5750432 -1.9642849
-7.531148 4.606039 -1.8947744
-8.8549032 3.3120852 -1.9917599
-7.3868256 4.2820339 -1.9276303
-9.0430851 4.3951421 -1.9406309
-8.2926979 4.1095276 -1.9466466
-7.2943602 4.8645005 -1.8807678
-8.0254011 4.4107037 -1.9245323
-7.201056 5.283319 -1.8732275
-8.2620096 5.3539271 -1.8970618
-7.4624152 5.002449 -1.8851691
-7.3672986 4.7640839 -1.8821235
-7.597981 4.8377614 -1.8904766
-7.2077808 4.4709969 -1.9138941
-8.5938034 3.3172634 -1.9837842
-8.0769901 4.3567467 -1.9289552
-7.8150773 4.6373296 -1.9086102
-6.8257489 3.9130316 -1.9321847
-7.3242879 3.7350206 -1.9494078
-8.9405413 3.7532899 -1.9560473
-7.5491023 4.1567807 -1.9470502
-8.1384277 3.9630597 -1.9467347
-8.8894501 4.6179643 -1.9328943
-8.7558928 4.0369029 -1.9441555
-8.9152613 5.1229596 -1.9105104
-7.2778845 4.419929 -1.9219464
-8.1773624 4.2463288 -1.9373587
-8.9731655 4.48386 -1.9357448
-6.8423352 4.8327456 -1.8883165
-6.9477243 4.1707621 -1.9191575
-7.4118423 4.7271719 -1.8861899
-6.884975 4.2366953 -1.9141982
-8.9113064 4.5584722 -1.9312658
-8.0649815 4.3666601 -1.9276286
-8.3079519 4.6013303 -1.9127266
-7.6474466 3.3270884 -1.9796581
-8.1026917 4.3377619 -1.9320513
-7.0674601 3.6341581 -1.9532187
-8.042202 4.0735798 -1.9381499
-7.0305319 4.6257105 -1.8977896
-8.5746794 3.7247381 -1.9678764
-7.7795582 3.8630357 -1.9636282
-7.386869 3.6797347 -1.9573421
-8.6013498 5.4969497 -1.8955809
-8.6795444 5.413507 -1.8999028
-7.3328505 4.3281264 -1.9219464
-8.7980251 3.4174821 -1.9882215
-8.5099306 3.4705052 -1.9788139
-8.2872238 5.296658 -1.8950257
-6.8896112 3.8353615 -1.9368019
-8.3415241 4.5687318 -1.9156995
-7.4529204 4.6878052 -1.8893526
-8.6201916 3.6482916 -1.9705302
-8.4445372 3.5369139 -1.9706812
-7.8908577 4.2332177 -1.9241433
-7.6599827 4.0161223 -1.9546286
-6.9098177 4.2072425 -1.9156859
-7.477365 4.2097301 -1.9380506
-7.2364616 3.8491116 -1.942961
-8.1923561 4.7067995 -1.9021089
-8.3906755 4.5274253 -1.9207962
-7.4741378 3.5490522 -1.9627974
-8.6352119 3.6226933 -1.9714147
-7.487186 4.6439805 -1.8907082
-8.3661251 4.5481329 -1.9182482
-8.5299196 5.0632477 -1.912535
-7.6870995 3.9384696 -1.9517866
-7.0529232 4.5772347 -1.8958948
-7.8526955 3.7618501 -1.9688386
-7.1271324 3.9649303 -1.9325469
-8.6968679 4.1261935 -1.9407578
-8.5895939 4.2753735 -1.9339623
-7.4952221 5.3551469 -1.8507186
-8.6658106 5.4428406 -1.9006883
-8.001318 4.1321239 -1.9358908
-8.2042065 3.8526134 -1.9494455
-8.1728563 5.4432707 -1.8917682
-7.931941 4.4901705 -1.9148022
-8.0237198 3.5531964 -1.9854165
-7.6246777 5.2866716 -1.865159
-7.248517 3.82636 -1.942961
-7.717833 4.7119026 -1.8984376
-7.912703 4.5121837 -1.9134754
-8.1561508 3.908458 -1.9449272
-9.0429449 4.9351187 -1.9144393
-7.4839473 5.4906893 -1.8660083
-6.8932858 3.3650942 -1.9513601
-8.8237562 3.9345672 -1.9484026
-8.7283964 5.3681483 -1.9034384
-6.8741622 4.7907639 -1.8887902
-7.2942204 3.3258667 -1.9716878
-7.3614411 3.6959264 -1.9533751
-8.7951632 5.2580433 -1.9034384
-7.6296582 4.824245 -1.8948996
-7.1842203 3.4825571 -1.9629662
-8.1108913 5.5317063 -1.891361
-8.1789322 3.8878658 -1.947638
-7.6880565 4.4567885 -1.9083295
-7.1647158 4.5069299 -1.9096311
-8.6099815 4.2518497 -1.9356611
-7.6664495 4.7803206 -1.8966686
-8.8284454 3.3655856 -1.9904329
-8.4951344 3.8178911 -1.9599152
-7.7887325 4.6548867 -1.9055141
-7.1671686 3.9285009 -1.93701
-7.1005187 3.5948849 -1.9562967
-8.6261482 4.9567246 -1.9186428
-7.6963344 4.7320561 -1.8966686
-7.2636523 4.9102349 -1.8807678
-6.903264 5.2069631 -1.8527551
-7.3392973 4.3629947 -1.9276303
-7.4220009 3.6392591 -1.9608135
-8.4970722 4.3801727 -1.9263177
-9.0254622 4.9994769 -1.9175824
-8.1915512 5.4186449 -1.8921754
-8.994236 4.4591084 -1.9373736
-8.2655926 5.3195038 -1.8938043
-7.0410538 3.6767151 -1.9521928
-8.0838337 3.4589219 -1.9896797
-8.8518782 3.8806286 -1.9492521
-7.734282 3.9014006 -1.9579444
-8.1802244 3.334023 -1.9996263
-7.3732653 5.129529 -1.8847269
-8.2233257 3.8301282 -1.9512527
-7.0649939 5.0893521 -1.8667614
-7.3066058 3.7694936 -1.9494078
-6.8535738 3.871958 -1.9332108
-7.4692607 4.6654034 -1.8898046
-7.2639298 3.8053763 -1.9439528
-8.72262 4.0714698 -1.9407578
-8.6416779 4.9295993 -1.9186428
-8.4080706 3.5682416 -1.9657114
-8.2090988 4.1975136 -1.9386855
-9.0222731 4.4377074 -1.9406309
-7.1083689 3.9984713 -1.9325469
-7.1587229 3.5259299 -1.9619404
-8.4416018 4.4527287 -1.9229198
-6.8318796 4.8575816 -1.8897375
-7.4870009 3.5263865 -1.9632931
-6.9134908 3.8202045 -1.9403932
-8.962636 3.7460685 -1.9598696
-6.9624524 4.1499133 -1.9196532
-8.0294971 3.5256455 -1.9839956
-8.4189558 4.4746151 -1.9207962
-8.7166634 4.8281736 -1.9219004
-8.5592995 5.0443439 -1.9157925
-9.0138187 3.6681049 -1.9636922
-8.1587887 4.2692995 -1.9360317
-8.2762518 4.1338267 -1.9457623
-7.2716484 5.1958027 -1.8745543
-8.3286362 5.2496843 -1.8970618
-7.8972983 3.7223139 -1.9745225
-8.8496971 5.196784 -1.9065815
-7.3463511 4.3205204 -1.9238408
-6.9110007 3.8047056 -1.9378278
-7.432085 5.5247293 -1.8613367
-9.0602551 3.6208904 -1.9692135
-7.1441417 3.5466945 -1.960914
-7.2123995 3.865382 -1.9394896
-8.0770864 4.8452268 -1.8957381
-7.5358777 3.4487221 -1.9662685
-7.5443287 4.9210124 -1.8904766
-8.0491581 4.8801832 -1.8944638
-8.0763426 4.0273428 -1.9404089
-7.0569558 4.0575175 -1.9285796
-8.5546799 3.3640139 -1.9792659
-7.7132573 5.1706262 -1.8668578
-8.8378582 3.9076216 -1.9488271
-8.0657825 3.4812427 -1.987785
-8.1366978 4.2903843 -1.9338206
-7.8504372 4.2752194 -1.9205287
-8.1592503 4.7562037 -1.9012597
-7.4369445 5.0193501 -1.8825153
-7.3081603 3.3045161 -1.9727137
-8.3270063 5.2852278 -1.9007263
-8.7753458 5.3213706 -1.9065815
-8.8976002 3.8342731 -1.9543486
-8.2223558 4.6897974 -1.9059312
-8.3580112 3.6402798 -1.9616449
-8.3207417 3.6863675 -1.9580302
-6.8241291 3.4650433 -1.9465898
-8.846282 3.3405695 -1.9922022
-7.6447763 4.8002515 -1.8948996
-7.0344462 5.1347952 -1.8672132
-8.6420498 5.4658294 -1.8991166
-8.0077991 4.1195498 -1.9358908
-7.6096292 5.3117223 -1.8655834
-7.002049 3.6845043 -1.9439844
-7.1738849 4.4813266 -1.9082102
-8.3108959 3.7132895 -1.958482
-7.5365052 4.1191444 -1.9399452
-8.9943218 5.0191655 -1.9140464
-6.9409099 4.7246885 -1.8930532
-8.7416649 4.7705088 -1.9206789
-7.7343187 3.871032 -1.9546286
-7.9467292 4.9903517 -1.8880935
-7.1846571 3.4549754 -1.959888
-7.6625738 5.2419825 -1.8664329
-8.456666 5.1282511 -1.9064269
-7.303124 4.8372364 -1.8789608
-8.2068949 5.3918128 -1.8917682
-8.7756319 4.0126472 -1.9458542
-8.8557901 4.6359291 -1.9284153
-7.2129493 3.4406543 -1.965018
-8.8032503 3.3877404 -1.9868948
-8.9364128 5.0978565 -1.9116892
-8.7745209 3.4401569 -1.9851254
-8.4008884 5.1669846 -1.9007263
-8.2596102 3.784102 -1.9544156
-8.3356743 4.5996604 -1.9178232
-7.6174183 4.0550938 -1.9498922
-6.919692 4.1834984 -1.9146941
-8.8297148 5.2036777 -1.9038314
-8.4577847 3.8812609 -1.9581462
-7.4195223 5.0415978 -1.882073
-8.8166914 5.2334023 -1.9046172
-6.823493 3.4917715 -1.9497699
-7.3315015 5.1348381 -1.8776504
-8.5274372 5.0980225 -1.9157925
-8.3859329 4.4908414 -1.9161246
-7.3879867 3.6513278 -1.9543667
-9.0291214 4.4059267 -1.9390023
-7.6806164 5.2189889 -1.8668578
-8.4663887 3.5148811 -1.9733922
-7.7037048 4.4335914 -1.9087813
-6.9083648 4.7344413 -1.887843
-8.7477665 4.049829 -1.9437306
-8.5724583 3.3399732 -1.9810731
-7.1225615 4.5118275 -1.901579
-7.9247208 4.2194548 -1.9295652
-8.6645823 3.6029832 -1.9758376
-7.5786462 3.3823171 -1.9692442
-8.0584364 4.0500565 -1.9390538
-8.8837194 3.8614206 -1.9539236
-7.314239 3.7589009 -1.9499036
-7.38448 5.0859118 -1.8811885
-6.9195209 3.7811341 -1.9368019
-7.0803609 4.5634356 -1.8996843
-7.8080993 4.3159323 -1.9164624
-7.0839944 4.01406 -1.9290755
-7.1221967 5.0461493 -1.8717315
-7.0531783 4.608892 -1.900158
-8.8077917 3.9606535 -1.9475529
-7.6052389 5.3622212 -1.871105
-7.5980415 4.5329823 -1.8992929
-7.9744906 4.1500053 -1.932276
-8.6502972 4.8985848 -1.9170139
-8.1455832 3.934917 -1.9453793
-7.0073147 5.1487622 -1.8640504
-6.8657026 3.8504083 -1.9332108
-7.637002 4.0347548 -1.9517866
-8.5313864 4.3302536 -1.9280164
-8.5171156 3.4111333 -1.9751997
-8.5350313 3.7714891 -1.963896
-7.9596906 4.1741281 -1.9318244
-7.2307234 3.4212613 -1.9670703
-7.5729542 4.0927706 -1.944682
-8.3532181 4.0256748 -1.9506272
-7.5945439 3.3608601 -1.9707317
-8.7217865 3.5147357 -1.9802605
-7.4052606 5.0659771 -1.8825153
-7.8542786 5.1059995 -1.8846955
-6.869875 3.4342535 -1.9540101
-7.2911243 5.1751804 -1.8754388
-7.3474073 4.7840004 -1.8807678
-8.5881319 3.69855 -1.9683188
-8.0142927 3.5791743 -1.98589
-8.149313 4.7847958 -1.9025335
-7.8478479 3.7898588 -1.9707333
-7.4394946 3.5900111 -1.959326
-8.1244364 5.5222487 -1.8925827
-7.9511185 4.4680815 -1.916129
-7.2628999 4.876483 -1.8762498
-8.3458004 4.0544391 -1.9519542
-7.7398691 4.3899312 -1.9110403
-7.758708 4.3684759 -1.912396
-8.2540302 4.6736193 -1.9101784
-7.273181 3.3439548 -1.9686093
-7.1732445 3.5051084 -1.9629662
-6.8916502 4.2109818 -1.9122145
-7.5232487 3.4715617 -1.9657729
-8.8882294 4.5819793 -1.9292297
-8.5117693 3.4400773 -1.9765551
-8.9358969 3.7844272 -1.957746
-7.5484357 3.4258375 -1.9667645
-8.362298 3.9977412 -1.9497427
-8.0067024 4.923461 -1.8914909
-6.8982267 3.3944495 -1.9561301
-8.7418499 3.4909112 -1.9824718
-7.5141315 4.9350958 -1.8864959
-7.9376063 5.0194907 -1.8897922
-7.1946464 4.9629192 -1.8744423
-7.1537614 5.0013003 -1.8717315
-8.9607849 4.5129042 -1.9361517
-7.8563228 4.5787377 -1.909937
-7.0819802 5.3517928 -1.8608435
-8.6180401 4.2221856 -1.9343872
-7.3800616 4.3091159 -1.9295248
-7.8413448 5.1151142 -1.8834214
-6.8918524 4.7550235 -1.8873693
-7.8862042 5.05655 -1.8846955
-8.1792164 4.7334995 -1.9025335
-8.6054411 5.5377955 -1.9006883
-8.3224974 4.0755196 -1.9493004
-7.3411636 3.714632 -1.9508952
-7.9822321 4.977828 -1.8931899
-6.9872999 3.7329538 -1.9465494
-8.4204283 5.1425977 -1.9015408
-8.9932194 3.6926687 -1.9615684
-8.5557814 3.7485478 -1.9661072
-7.465693 5.3695049 -1.8473209
-8.783556 4.7219496 -1.9235291
-7.2590985 3.3790019 -1.9691224
-7.4846015 4.9832878 -1.8869382
-7.4641032 4.2332006 -1.9380506
-6.8732758 4.2593284 -1.9146941
-7.9250894 5.0465093 -1.8906415
-8.0454435 4.9126067 -1.8974369
-7.0629492 4.031466 -1.9265959
-7.7011719 3.9151735 -1.9522606
-8.1276846 3.9894719 -1.9471865
-8.7065916 4.8583817 -1.9231219
-9.0428419 4.9720445 -1.9179752
-7.5837622 4.5568299 -1.8992929
-7.0007052 3.7118819 -1.9470625
-8.6549473 4.1730742 -1.9369352
-7.312336 4.8268371 -1.8794127
-7.1129532 3.9863491 -1.9320507
-7.8170862 5.1343355 -1.8812981
-7.2473555 4.4326825 -1.9172097
-7.4430861 4.7143373 -1.8907082
-8.7869902 5.2907257 -1.905403
-8.7418766 5.3386483 -1.9026529
-6.9500899 3.769453 -1.9424453
-7.1130733 3.5871873 -1.958349
-7.5175672 3.4976487 -1.9672604
-6.9263492 3.3544271 -1.9582504
-7.6524925 5.270484 -1.8681319
-8.0611076 4.8528447 -1.8936145
-7.1630502 4.9743371 -1.8699244
-7.0525699 3.6545765 -1.9521928
-6.9525018 3.3267784 -1.9614304
-7.7327108 5.1485448 -1.867707
-6.8401742 4.2685299 -1.9087431
-8.1924601 3.3090317 -2.0001001
-7.6051912 4.8591008 -1.894457
-8.39503 3.5938668 -1.9652593
-8.6981745 5.3872471 -1.9002956
-6.9732656 5.1915207 -1.8635988
-8.6116247 5.4844909 -1.8959738
-7.9838815 4.4534798 -1.9209942
-8.5451431 4.3203936 -1.9297152
-7.8081574 3.8314376 -1.9664701
-7.6760144 3.9938235 -1.9555761
-6.9879789 5.1684232 -1.863147
-7.6937113 3.9723468 -1.956997
-8.0137682 4.0908089 -1.9340832
-8.6830807 3.5787003 -1.9776067
-7.0179591 4.0939255 -1.9246123
-7.4333982 3.6159246 -1.9608135
-8.8018064 4.6961637 -1.9243433
-7.4871554 4.1843328 -1.9371034
-7.7590041 4.6703234 -1.9015337
-8.0872107 4.0010824 -1.9399571
-8.1090326 4.829875 -1.8999852
-7.4120522 4.265553 -1.930946
-8.6715355 4.1475611 -1.9377847
-6.9867511 4.6601353 -1.8935269
-7.5992913 5.3401136 -1.8672826
-7.7034421 5.199224 -1.8685565
-8.4694138 4.3995996 -1.9229198
-8.8659792 5.1689558 -1.9065815
-7.0536914 5.1149678 -1.8681169
-7.2950687 4.3990374 -1.9228936
-32.291218 7.6677427 -2.0985174
-32.295715 7.5617323 -2.0971284
-32.327026 7.3551331 -2.0960174
-32.305698 7.4571037 -2.0961561
-32.413185 6.841125 -2.0942116
-32.340237 7.2513614 -2.0953228
-32.359814 7.0425296 -2.0935171
-32.381775 6.9408317 -2.0935171
-32.345318 7.1458726 -2.0940728
-29.97917 9.612112 -2.1876292
-30.281057 8.7729864 -2.1909742
-30.308466 8.6778183 -2.1909742
-30.291166 8.4159451 -2.1842844
-30.032024 9.5251427 -2.1894538
-29.815643 9.818511 -2.1806355
-30.06081 9.3267746 -2.1870213
-30.519938 7.9653907 -2.1921906
-30.451954 8.1523342 -2.1908224
-30.277081 8.3096294 -2.1810915
-30.314476 8.5251522 -2.1882377
-29.886152 9.7377996 -2.1838284
-30.496691 8.061738 -2.1923428
-29.713678 9.9922743 -2.1774426
-30.374233 8.2338324 -2.186717
-30.266737 8.8720207 -2.1920385
-30.234894 8.9659185 -2.1917346
-30.333664 8.5820131 -2.1908224
-30.126181 9.243433 -2.1899099
-30.084625 9.4379272 -2.1912785
-29.763844 9.9051809 -2.1789627
-30.539021 7.8679714 -2.1917346
-30.200846 9.0591373 -2.1912785
-30.168421 9.152813 -2.1909742
-29.922272 9.6976261 -2.1855006
-36.398396 5.9278855 -1.9161093
-36.535542 5.714736 -1.9219832
-36.154415 6.7662067 -1.9105811
-36.422756 5.8144379 -1.9164548
-36.588844 5.6053429 -1.9240563
-17.013708 7.2982645 -2.1837502
-17.50901 5.6883583 -2.1703715
-16.415199 5.9997659 -2.1616442
-17.255617 6.6126618 -2.1793764
-16.493952 5.7074409 -2.1584058
-16.269003 6.2376347 -2.1543579
-16.227161 6.2800994 -2.1511195
-17.384188 6.1963286 -2.1762891
-16.879211 7.652307 -2.1863229
-17.869553 6.2391357 -2.1197398
-16.174484 6.3768225 -2.1492305
-17.088488 7.203505 -2.1878667
-17.997019 7.6834936 -2.1988957
-17.29311 6.5027189 -2.1788621
-17.89562 7.773416 -2.1917887
-17.412928 6.1449709 -2.1775753
-17.07807 7.1360698 -2.1832354
-15.980232 6.7986302 -2.1465321
-17.504251 5.7476492 -2.1721725
-16.313435 6.1373944 -2.1551676
-17.340578 6.3347096 -2.1770608
-18.038958 7.4347339 -2.1917887
-16.9587 7.4646587 -2.1858082
-16.506178 5.6536603 -2.1575961
-16.521984 5.601141 -2.1573265
-17.367859 6.2828836 -2.1780899
-17.441904 5.9709921 -2.1737161
-17.162516 6.8880386 -2.1811774
-16.114719 6.4999385 -2.147881
-16.863243 7.7731137 -2.190954
-18.054878 7.3750134 -2.1908085
-17.870443 6.3025341 -2.1224353
-17.195242 6.7137647 -2.1768036
-17.116911 7.08919 -2.1855512
-17.528061 5.6033759 -2.1693423
-17.229204 6.6647005 -2.1786046
-18.011932 7.6230383 -2.1976702
-16.010633 6.7522597 -2.147881
-16.86953 7.7118764 -2.1883812
-17.480959 5.8619142 -2.1739736
-16.420929 5.9142499 -2.1584058
-16.459635 5.8116226 -2.1586759
-17.453062 5.9136314 -2.1726871
-17.331762 6.3932543 -2.1786046
-16.211042 6.3324957 -2.1516595
-16.494637 5.7657933 -2.1611047
-17.17116 6.8289733 -2.1793764
-15.822852 6.9676471 -2.1360071
-16.55452 5.5542684 -2.1594853
-16.063723 6.656096 -2.1495004
-15.935135 6.8386049 -2.1430235
-15.920843 6.8917937 -2.1441031
-17.270741 6.5563188 -2.1786046
-16.046387 6.7080598 -2.1500401
-16.079058 6.6033311 -2.1486907
-18.035658 7.4997787 -2.1944842
-16.934212 7.5493217 -2.1873522
-16.906788 7.6008673 -2.1868374
-17.14983 6.9142513 -2.1809199
-17.364635 6.2509122 -2.1762891
-17.868086 6.2071366 -2.1182692
-16.123569 6.5625353 -2.152199
-17.489874 5.8038526 -2.1726871
-16.411617 5.9400425 -2.1584058
-16.152479 6.4857373 -2.1519291
-17.449316 6.0347972 -2.1773181
-17.120737 7.027873 -2.1829784
-16.373972 6.0430398 -2.1584058
-16.341919 6.0895839 -2.1565168
-17.302292 6.4442239 -2.1773181
-15.84648 6.9186993 -2.1362772
-17.428396 6.0889354 -2.1770608
-17.954569 7.7321239 -2.1964447
-16.176453 6.43643 -2.1524687
-18.032133 7.5648737 -2.19718
-16.99798 7.3548203 -2.1847792
-17.113319 6.9621339 -2.1788621
-17.19622 6.7764435 -2.1798909
-16.995024 7.5443716 -2.1942985
-16.295927 6.1893187 -2.1554375
-17.521126 5.6315141 -2.1695998
-16.443159 5.8639722 -2.1589456
-16.965694 7.4042311 -2.1834929
-17.036551 7.2447824 -2.1837502
-22.238501 5.9964919 -2.2121353
-22.223837 6.7479072 -2.2324686
-20.612911 7.5813475 -2.2558298
-20.629156 7.5138273 -2.2549348
-20.805351 6.4493904 -2.2354746
-20.77957 6.584805 -2.2372642
-20.819254 6.4178786 -2.2359221
-20.715929 6.8522949 -2.2397246
-20.59277 7.7212129 -2.2591848
-20.928055 5.879703 -2.2305536
-22.218115 6.5940423 -2.2272282
-22.0767 7.4295721 -2.2395959
-20.94994 5.6733336 -2.2267511
-22.222649 6.2927389 -2.2188437
-20.594578 7.6481504 -2.2565007
-20.626501 7.4395032 -2.2518034
-20.867392 6.2179585 -2.2345798
-20.649769 7.3746715 -2.2518034
-22.247274 5.8865581 -2.2100391
-22.213903 6.5169578 -2.2245035
-22.234901 6.1455965 -2.2159083
-20.663475 7.306438 -2.250685
-20.566555 7.7851586 -2.2589612
-22.008871 7.7547607 -2.2439981
-20.803946 6.5206881 -2.2377114
-22.275108 5.595439 -2.2052178
-20.900324 6.0850468 -2.2339089
-22.217066 6.4421763 -2.2226167
-22.221897 6.36798 -2.2209396
-20.724138 6.782836 -2.2381587
-20.971498 5.6085205 -2.2271984
-20.754995 6.6488419 -2.2368169
-20.855362 6.2857881 -2.2354746
-22.249811 5.9620657 -2.2123451
-20.839314 6.3524361 -2.2359221
-20.911699 6.0171537 -2.2330141
-20.955006 5.7454519 -2.2294352
-20.96876 5.5724969 -2.2258563
-20.894445 6.1546249 -2.2354746
-22.222067 6.6712127 -2.2299533
-20.754795 6.7207675 -2.2392771
-22.274771 5.6697879 -2.2071047
-22.013689 7.4854894 -2.2351942
-22.226976 6.2186275 -2.2171664
-21.900045 7.7939501 -2.2345653
-20.669231 7.0536656 -2.2419617
-20.703722 6.9204998 -2.2408433
-22.238745 6.0715437 -2.2142315
-20.928589 5.9508805 -2.2327905
-20.679998 6.9848719 -2.2406194
-20.942593 5.8128638 -2.2301064
-32.368332 9.8694248 -2.1438003
-32.254807 8.9010983 -2.1174085
-32.261433 8.7939672 -2.1158807
-32.232857 8.4607391 -2.1079631
-32.332302 9.7475815 -2.1389382
-32.276035 9.1802797 -2.1240759
-32.297192 9.5161238 -2.1319933
-32.235809 7.9225492 -2.0989342
-32.22216 8.1341896 -2.1015735
-32.230297 8.3519497 -2.1058795
-32.238907 8.5706434 -2.1103244
-32.258602 7.8207703 -2.0987954
-32.237877 8.030508 -2.100879
-32.390564 9.9874783 -2.1476893
-32.235115 8.2452307 -2.1043518
-32.257435 9.0109444 -2.1196308
-32.252014 9.1187458 -2.1212978
-32.246506 8.6811924 -2.1128249
-32.294361 9.4051437 -2.129632
-32.307304 9.6294727 -2.1349101
-32.291145 9.2942915 -2.1272705
-36.211658 14.25533 -2.0336998
-36.150204 14.10022 -2.0271351
-36.292912 14.419071 -2.0415316
-26.711479 11.222589 -2.1333063
-26.986973 10.695349 -2.1378267
-26.319838 11.745625 -2.1210368
-25.039692 10.752167 -2.1592484
-24.882847 11.576266 -2.1760776
-24.855331 11.849788 -2.1840582
-24.891964 11.485496 -2.173475
-26.41173 12.236978 -2.1442845
-25.048046 10.477163 -2.1505735
-25.047693 10.662498 -2.1568191
-25.056961 10.853001 -2.1641061
-24.865433 11.758842 -2.1814559
-25.106594 10.409135 -2.1530025
-26.431385 11.944904 -2.1358895
-25.06455 10.576774 -2.1552579
-26.927319 10.769732 -2.1355665
-26.887798 10.852048 -2.1350822
-26.355549 11.860917 -2.1274946
-26.739063 11.037083 -2.1295931
-26.700577 11.119503 -2.1292703
-24.832342 11.934735 -2.1854463
-25.164085 10.110111 -2.1477976
-26.822178 10.923706 -2.1323378
-26.830826 10.976371 -2.1345978
-24.8734 11.667107 -2.1786799
-27.029718 10.614146 -2.138634
-25.077496 10.955642 -2.169311
-24.825199 12.027482 -2.1883957
-26.384804 12.124036 -2.1384726
-26.39373 12.027885 -2.1358895
-25.161734 10.201117 -2.1505735
-36.705559 15.321986 -2.0832236
-36.517136 14.841015 -2.0626078
-37.330559 16.625391 -2.1461074
-36.373486 14.583463 -2.0493631
-37.084663 16.16835 -2.1224973
-36.775043 15.486735 -2.0905945
-36.588596 15.004073 -2.069979
-36.648315 15.163153 -2.076659
-37.212387 16.50288 -2.1370089
-37.165325 16.342552 -2.1307898
-28.771044 11.733397 -2.1563084
-29.195326 11.006844 -2.1661911
-28.379951 12.202571 -2.1426244
-29.307093 10.682426 -2.1655831
-28.758039 11.675414 -2.1537237
-28.6647 12.006353 -2.1567645
-28.797497 11.481168 -2.1509869
-27.234188 10.203623 -2.1421857
-27.167677 10.373833 -2.1420243
-27.077797 10.534953 -2.1399255
-29.303381 10.733264 -2.1666474
-28.696753 11.913941 -2.1563084
-27.188936 10.284214 -2.1410556
-28.421814 12.114923 -2.1429286
-27.127506 10.456269 -2.1413784
-29.071169 11.064395 -2.1588931
-28.948799 11.121976 -2.1517472
-28.337818 12.29008 -2.1423204
-28.837135 11.392109 -2.1512909
-28.766836 11.573813 -2.151443
-28.555225 12.06601 -2.1508348
-27.247412 10.1111 -2.1405711
-28.883978 11.201307 -2.1493144
-28.859783 11.296366 -2.1502266
-28.756166 11.832854 -2.158133
-29.244701 10.92067 -2.1674075
-29.303173 10.837751 -2.169384
-3.6553538 2.9092157 -1.9065737
-4.2422886 2.1745443 -1.9974211
-4.1840353 3.2104025 -1.9143405
-4.27773 2.617981 -1.9523982
-4.3161478 2.3742664 -1.9647666
-4.4705348 1.8401985 -2.0281506
-4.055346 2.4667046 -1.9399778
-3.5162444 3.050878 -1.8992411
-3.837888 2.7147138 -1.9196094
-4.2539449 3.0111322 -1.9274716
-4.5482683 3.0560002 -1.9383438
-4.1749735 2.2402146 -1.9841329
-3.585732 2.9660332 -1.8984267
-3.8641398 3.2362559 -1.9136399
-3.4532976 3.2534432 -1.8858582
-4.1915741 3.0973654 -1.9274716
-4.058795 2.3874984 -1.9708444
-3.7154536 2.8350699 -1.9073883
-3.6776371 2.8199279 -1.9367932
-3.9610491 2.5921681 -1.9342743
-4.4843411 2.3348322 -1.9695762
-3.953414 2.7887456 -1.9265078
-4.1630864 3.1170135 -1.9229884
-3.7477319 3.0129669 -1.9137551
-3.4883683 3.2455063 -1.8946258
-4.5386448 3.0702741 -1.9383438
-4.2975163 3.0983555 -1.9239
-4.4649734 2.1197176 -1.97194
-3.1447673 3.2487922 -1.885301
-4.3637352 3.230154 -1.9189576
-3.6981719 2.7989769 -1.9384543
-4.0279813 2.8848543 -1.9266313
-4.3565254 2.2993386 -1.9647666
-3.6241462 3.2637823 -1.8938372
-4.1109762 2.3150797 -1.9749972
-4.5394158 1.6471099 -2.0256586
-4.5546098 1.5881126 -2.0231671
-3.6404328 3.2373002 -1.8914949
-4.4227657 2.1940756 -1.9695488
-3.6627941 2.9057238 -1.9082032
-4.4947901 2.7748194 -1.9558648
-4.2152472 2.8928018 -1.9434763
-4.5551233 2.0155156 -1.9886781
-4.2736359 2.8159118 -1.9457713
-3.838546 2.6482494 -1.9500815
-4.1542306 2.3597808 -1.953828
-4.4205852 2.4267318 -1.9641105
-3.825742 2.6571574 -1.94759
-4.0564685 3.2098997 -1.9117806
-4.495636 3.1034338 -1.9318815
-4.5093436 2.8686433 -1.9422832
-4.2215095 3.1764555 -1.9180171
-3.5305932 3.2131629 -1.8986109
-4.4809341 2.7760615 -1.9513817
-4.3216515 2.7416508 -1.9457713
-4.4063258 2.8658924 -1.9454043
-4.2222219 2.2514224 -1.9570869
-3.7798736 2.9517286 -1.9081756
-4.2809062 2.0683904 -1.9916075
-4.5535088 2.474889 -1.9725474
-3.6325548 3.1030769 -1.900205
-3.6404879 2.8647845 -1.9359626
-3.6049347 3.2877228 -1.8946182
-3.9772575 2.5672295 -1.9342743
-3.5552285 2.9357615 -1.9259964
-4.3676391 2.7135801 -1.9557167
-3.454977 3.2756996 -1.8930315
-4.4837761 1.888749 -1.9929352
-3.9906337 2.4756861 -1.9650308
-4.1912785 2.542655 -1.9544047
-4.4577169 2.8201373 -1.952876
-4.0943565 3.0429604 -1.938886
-4.2467861 3.1331925 -1.9158113
-3.5929494 3.1682971 -1.9057845
-3.5670249 2.9885042 -1.8984267
-3.9326072 2.5434871 -1.9592172
-3.7918642 2.695874 -1.9450985
-3.5534103 2.9961863 -1.895982
-4.3184085 3.0723786 -1.9246352
-4.5299821 2.517694 -1.9725474
-3.6210465 3.1529312 -1.9105667
-3.3436713 3.1995864 -1.8870202
-4.1770301 2.5519505 -1.9512166
-4.5610909 1.7957903 -2.0092297
-4.0026636 3.2708881 -1.9102864
-4.3875146 3.0190332 -1.9349298
-3.5714338 2.9303887 -1.930149
-3.1977479 3.2896178 -1.8690959
-3.9387801 3.1745179 -1.9212903
-4.0910096 2.435781 -1.9464954
-4.0833373 2.4486215 -1.9464954
-3.8079426 3.0971904 -1.907111
-4.2458472 3.153218 -1.9202232
-4.3107257 2.406755 -1.9695488
-3.4262617 3.1272638 -1.8919084
-4.3468204 2.069237 -1.9701227
-3.6090891 2.8955281 -1.9334711
-4.4217148 1.9451412 -1.9774553
-3.9824781 2.9287443 -1.9219466
-4.2785959 2.1788199 -1.9644195
-4.0434499 3.2203319 -1.9102864
-3.7500446 2.9954154 -1.9097699
-4.4401584 2.0906672 -1.9567961
-4.2584772 2.6247008 -1.9469328
-4.0767813 3.2051156 -1.917011
-4.1695108 2.2541926 -1.9849632
-3.3335056 3.1244137 -1.9068946
-4.4583592 1.9111993 -1.9864172
-4.1116295 2.8004684 -1.9352204
-3.2810907 3.2299726 -1.8764287
-4.4459047 1.8709654 -2.0231671
-4.0234823 2.8721528 -1.9219466
-4.4405265 2.6254184 -1.962602
-4.5226955 2.0608633 -1.9838955
-4.1389689 3.1397679 -1.920747
-4.5236907 1.6898186 -2.0256586
-3.802237 3.2663863 -1.9021646
-4.2813702 3.11747 -1.9231646
-4.4083986 1.9973664 -1.9815289
-4.3715839 2.4991241 -1.9609872
-4.3015327 2.7765186 -1.9465364
-3.4873545 3.0645247 -1.8935381
-4.3302841 2.5483077 -1.9563023
-4.4628963 2.170624 -1.9807075
-4.4320774 2.8431191 -1.9491401
-4.3353186 2.122467 -1.9758255
-4.3547745 3.0368991 -1.9283118
-3.7873721 2.7693124 -1.9155358
-4.4203835 2.9806905 -1.9371359
-4.3229976 2.0222321 -1.9999129
-4.2359209 3.1665399 -1.9202232
-4.4920101 2.3120062 -1.9680146
-4.2462683 2.1345503 -1.9907769
-4.5022664 1.7711025 -2.0298114
-3.9210231 2.8215642 -1.9233197
-4.2306004 2.1853299 -1.9949296
-3.3129516 3.2104216 -1.8805021
-4.3955984 2.6928966 -1.9610718
-3.7680192 2.9905088 -1.9145521
-3.4319799 3.0488863 -1.9168608
-4.0374846 2.409189 -1.9675225
-3.5017867 2.9853027 -1.921844
-4.4045467 2.6604092 -1.9572469
-4.4297557 2.9567056 -1.9349298
-3.753861 3.1625218 -1.907111
-4.5591021 2.6971011 -1.9618424
-3.841291 2.7351677 -1.9261273
-3.2273743 3.2785225 -1.8747991
-3.5706904 3.1685441 -1.8986109
-3.6506371 3.0988183 -1.9049876
-4.0199885 2.4417777 -1.9683529
-3.5452809 3.1859827 -1.8954228
-3.7691464 2.9624465 -1.9073786
-4.4176235 2.6494327 -1.9595419
-4.0158877 3.2398851 -1.9065504
-4.4939666 2.754914 -1.9513817
-3.6485302 3.0871181 -1.901002
-3.6885693 2.8699603 -1.9073883
-3.9998667 3.0911555 -1.9197603
-4.1081643 2.7793489 -1.9289738
-3.8340724 3.0588834 -1.9055496
-4.2031145 2.8941417 -1.9396511
-3.8249278 2.9294512 -1.9177402
-3.6494699 2.8533337 -1.9359626
-4.2124572 3.0720527 -1.9282188
-4.4441266 2.8311605 -1.9506347
-3.796344 2.9455004 -1.912161
-3.6776681 2.8986933 -1.9114619
-4.5624938 1.5427485 -2.019845
-4.3551574 2.0899141 -1.9774553
-4.3882322 2.8935218 -1.9454043
-3.9446836 2.6170053 -1.9342743
-3.7083488 2.7975798 -1.9417762
-4.4225335 1.9703621 -1.9823436
-3.8998466 2.9927528 -1.9102343
-4.3672347 1.951745 -2.0048957
-4.5382738 2.8472273 -1.9474306
-4.221271 2.8774478 -1.9419464
-4.1926265 3.1961083 -1.9136052
-4.2934108 2.5814815 -1.9500557
-3.3450201 3.1254222 -1.9110471
-3.9563806 3.1377075 -1.9174651
-3.6355748 2.9309864 -1.905759
-4.3717122 2.5174 -1.9648912
-4.3120594 2.1448362 -1.9709374
-3.4083064 3.1306453 -1.8870202
-4.1122012 2.3962057 -1.9456807
-4.1624084 2.2672806 -1.9849632
-4.4881511 2.0963311 -1.9767221
-3.7188144 3.0282938 -1.9081756
-3.269623 3.2389855 -1.875614
-3.8785303 3.227669 -1.9159352
-3.6584246 3.2225275 -1.8930565
-3.4497073 3.0260556 -1.9160303
-4.4544401 2.6054041 -1.9633671
-3.583797 2.9123707 -1.9293185
-3.9748573 3.2900941 -1.9065504
-3.2960603 3.1481073 -1.9019114
-3.3822715 3.1560771 -1.8862053
-4.3520632 3.2427404 -1.9182396
-3.6377475 2.9515359 -1.9122766
-3.4749587 3.0730615 -1.8919084
-3.860884 2.694694 -1.922868
-3.9841976 2.9108264 -1.9180425
-4.0153966 3.0831065 -1.9228204
-4.470613 2.78915 -1.9506347
-4.4691248 2.5764341 -1.962602
-4.5306792 1.67624 -2.0264893
-4.2972021 2.0597029 -1.9965907
-4.10039 3.2600863 -1.9003692
-4.3510022 2.5237961 -1.9586447
-4.0577364 2.6848371 -1.9384638
-3.4401476 3.1201439 -1.8943528
-3.5778065 2.9784443 -1.8992411
-4.0014701 2.4476891 -1.9625393
-4.0362196 3.2353241 -1.9117806
-3.5255411 3.2187057 -1.8986109
-4.1480365 2.7495899 -1.9360012
-3.7028401 3.1798773 -1.895399
-3.9421709 2.5976233 -1.9285713
-3.7552018 2.7914023 -1.9098326
-4.273953 2.6065054 -1.9484943
-3.8222466 2.7398295 -1.9204241
-4.1500344 2.5713248 -1.9456371
-4.1955152 2.9083915 -1.9404162
-3.7184398 3.1729798 -1.8985223
-4.1664071 2.7149327 -1.9344395
-3.9963143 2.9004421 -1.9196042
-4.4227586 2.633635 -1.958012
-4.419044 1.892336 -2.0156927
-4.1798916 2.5718484 -1.9567961
-4.163599 2.9250655 -1.9335307
-4.2674584 2.4533525 -1.9631723
-3.6702259 3.192271 -1.8883716
-4.4646859 2.3604045 -1.9672338
-4.2154503 2.2563448 -1.9554573
-4.3036623 2.157563 -1.9701227
-3.5607705 3.0214233 -1.905759
-4.2275434 2.4746373 -1.9528106
-3.9153779 2.9754484 -1.9110152
-4.0700569 2.8477244 -1.9320971
-4.251265 2.8396044 -1.9434763
-4.4345269 3.1548531 -1.9239836
-4.2924094 3.293776 -1.9117775
-4.0030236 2.4660256 -1.9675225
-3.2536557 3.1867158 -1.9002503
-3.2479105 3.2581794 -1.8747991
-4.5178618 2.0758364 -1.9846929
-3.938678 3.153991 -1.9159352
-3.9576654 2.7731304 -1.9241167
-4.3970823 1.9156502 -2.0107098
-4.2886267 2.8065491 -1.9488314
-4.29002 2.5977929 -1.9523982
-4.1532221 2.7250032 -1.9320971
-4.3237576 2.9595459 -1.9386795
-4.4853745 1.8134557 -2.0298114
-4.5308962 1.8417603 -2.0043416
-4.0938239 3.0126042 -1.9312357
-3.7255685 3.1589153 -1.8969604
-3.8917336 2.5957737 -1.9567257
-3.8003142 2.6839485 -1.9450985
-4.2244639 2.2781608 -1.9636048
-4.2454643 2.2466021 -1.9652342
-4.5492496 3.282469 -1.9193453
-3.4788485 3.0036559 -1.9193522
-4.2872033 2.4112096 -1.9615782
-4.3729181 2.903219 -1.9424155
-4.2119122 2.5011504 -1.9528106
-3.9386737 2.7968717 -1.9233197
-3.9705551 3.1287155 -1.9197603
-3.8523574 3.0536399 -1.9102343
-3.8853486 2.8612192 -1.9209286
-4.5256643 2.2578177 -1.9703568
-4.1975074 2.2016215 -1.9849632
-3.7757552 2.7882059 -1.9163505
-3.7736943 3.2937033 -1.9006344
-3.8775403 2.6038964 -1.9534036
-3.6727057 3.2146349 -1.895399
-3.9734652 2.4997344 -1.9642004
-4.5014954 2.3257535 -1.9742612
-4.5546732 2.2365651 -1.9773842
-4.1469111 2.2842114 -1.9824718
-4.4589996 2.339591 -1.9609872
-4.1552649 2.2803462 -1.9849632
-3.7025313 3.0539501 -1.9097699
-3.7665486 3.1330233 -1.9032072
-4.2092314 2.1909692 -1.9874548
-3.9818141 3.1173732 -1.9205252
-4.4683747 3.1263056 -1.9282916
-4.1078138 2.410944 -1.9473103
-4.0788803 3.0513515 -1.9358259
-3.9885402 2.7576704 -1.9312903
-3.8090239 3.0783143 -1.9024261
-3.9853039 2.5547209 -1.9342743
-3.5339005 3.1958678 -1.8946258
-3.544594 2.9457464 -1.9251658
-4.5146818 2.2878568 -1.9719188
-4.5422349 2.0354419 -1.987084
-4.1132526 3.1612191 -1.9177582
-4.3198657 2.3940978 -1.9703459
-3.7106953 3.0411313 -1.9089726
-4.3779774 2.0503075 -1.9790848
-4.2474823 2.1603737 -1.9965907
-4.3806252 2.2770486 -1.9695488
-4.2120533 2.6883187 -1.9445902
-4.422111 2.3737497 -1.9539599
-3.3790321 3.1729016 -1.8902789
-4.3126011 2.5745289 -1.9555215
-4.19663 2.7157226 -1.9453708
-3.6111317 3.2726946 -1.8922755
-4.4727659 1.9007101 -1.990491
-3.9049373 2.5692532 -1.9550647
-4.1992459 2.5294747 -1.9544047
-4.1758461 3.1061189 -1.9244826
-2.9329791 3.2866819 -1.787623
-3.5244217 3.0386312 -1.8984267
-3.8326578 2.9163024 -1.9169432
-4.5350151 1.8021251 -1.9994529
-4.2513008 2.6572115 -1.9516176
-4.5595765 1.573797 -2.0231671
-4.3406615 3.0473371 -1.9261057
-4.5442128 2.7076426 -1.9588536
-3.93187 2.6263657 -1.9318304
-4.1867943 2.2296791 -1.9866244
-4.3761425 2.6998453 -1.9557167
-3.4114859 3.1433754 -1.8919084
-3.9073501 3.1693051 -1.909815
-4.2004247 2.2994478 -1.9587165
-3.8813839 2.6908112 -1.9293863
-3.8690023 2.8679099 -1.9169432
-4.402102 2.0112059 -1.9815289
-4.4548621 2.1493423 -1.973534
-3.3249905 3.136126 -1.907725
-4.5062165 1.8055279 -2.0372858
-4.0428057 3.0440061 -1.9220554
-4.5000548 1.786599 -2.0314722
-4.0279903 3.0727334 -1.9243506
-3.9576809 2.5246499 -1.9642004
-4.4070201 3.177233 -1.9203935
-4.3210979 2.0047669 -1.9957601
-3.6255565 3.1168814 -1.9017993
-3.8483417 2.6372151 -1.950912
-4.0231652 2.7167521 -1.9336814
-4.197371 2.6975884 -1.9414669
-4.3884821 3.2059543 -1.9211116
-4.2134485 2.5200708 -1.9575931
-3.4456129 3.0417247 -1.9193522
-3.2067816 3.2782581 -1.8682812
-4.1528482 3.2385609 -1.9113991
-4.1291442 2.7745798 -1.9352204
-4.2253776 3.0510898 -1.9274716
-3.7258525 2.774225 -1.9417762
-4.531743 2.2785726 -1.9766034
-4.114161 2.9879167 -1.9320008
-4.2159419 3.1930919 -1.9202232
-4.512136 2.7465227 -1.9558648
-3.915905 3.1968515 -1.9197603
-4.23948 3.0410228 -1.9297135
-4.5581717 2.4311483 -1.9656621
-4.5227861 3.0803428 -1.9354718
-4.5547743 2.4570293 -1.9694875
-3.7171192 2.7859156 -1.9417762
-4.4584618 1.8598264 -2.0264893
-4.5212798 2.0946984 -1.9894751
-4.106039 3.2858131 -1.908458
-3.540879 2.9615674 -1.9284881
-4.1652441 3.2377777 -1.915076
-3.57161 3.1895812 -1.9049876
-3.4167924 3.0740638 -1.9193522
-4.1276035 2.5934129 -1.942449
-4.5341511 2.0489368 -1.986287
-4.4912305 2.8969204 -1.9422832
-3.7446706 2.7518454 -1.9426068
-4.2124572 2.2888303 -1.9611605
-3.7316375 2.7603252 -1.9401153
-3.878046 3.0149524 -1.9086727
-3.9123731 3.0217566 -1.9219466
-4.5410385 1.6639023 -2.0289807
-4.2989664 2.7940779 -1.9495965
-3.6504929 2.9240861 -1.9090179
-4.3436241 2.1012263 -1.975011
-4.5541883 1.5558785 -2.0181842
-4.3271174 3.2666674 -1.9160855
-3.3769965 3.0962319 -1.9127082
-4.4932351 2.5529089 -1.9664272
-4.0397668 2.4921362 -1.9399778
-4.3304977 1.9843813 -1.9957601
-4.392436 2.023514 -1.9798996
-3.3256669 3.2025173 -1.8821317
-3.8902032 3.1961529 -1.9113449
-4.0622921 2.8234522 -1.9235083
-4.0100756 2.7262597 -1.9312903
-4.3590937 2.7272873 -1.9557167
-4.402348 2.4709649 -1.966453
-3.8585088 2.8789458 -1.9161462
-4.3085394 3.263382 -1.9096234
-4.3648901 2.0609672 -1.9758255
-3.6893601 2.8105805 -1.9384543
-3.9192264 2.9977329 -1.9180425
-4.2351146 2.6656916 -1.9477133
-4.0161009 2.530098 -1.9399778
-4.3766627 1.9395086 -2.006557
-3.525588 3.0204606 -1.8935381
-4.0969944 2.8283236 -1.936782
-3.7449143 2.8203959 -1.9139062
-4.0709729 2.3775136 -1.9733361
-4.5530252 1.6036412 -2.0248284
-4.3240776 1.9896441 -1.9940993
-4.3116994 2.033447 -1.9974211
-4.2444639 3.0244813 -1.9274716
-4.085597 3.2904794 -1.9033105
-4.2710834 2.0968688 -1.9932684
-3.8987877 2.8428793 -1.9209286
-4.5298014 2.4989471 -1.9687222
-4.5136309 2.8514597 -1.9400773
-3.4542146 3.0936229 -1.8910936
-4.3560967 2.921742 -1.9409212
-3.8581734 3.2519753 -1.9159352
-4.1511378 2.9554853 -1.9365908
-3.3907211 3.0893064 -1.9151996
-3.9008827 2.6592238 -1.9285713
-4.2012835 3.084182 -1.9274716
-3.6224158 2.8876021 -1.9359626
-4.0143661 3.2594588 -1.9110336
-4.4036369 2.4535708 -1.9633297
-4.4697065 2.8080771 -1.9543707
-4.5609846 1.9838943 -1.98549
-4.2693539 2.1127231 -1.9957601
-4.3164368 2.7670126 -1.9495965
-4.3328776 2.7584383 -1.9534217
-4.4549913 2.1321335 -1.9703459
-4.2958994 2.9803553 -1.9341962
-4.4529052 2.1743784 -1.9775194
-3.6116056 3.1246324 -1.899408
-3.6134603 2.9697273 -1.9090179
-3.9175427 2.559983 -1.9575561
-3.655416 3.0732644 -1.899408
-4.406301 1.97981 -1.9774553
-4.4529276 2.9520931 -1.9415479
-4.2760181 2.0826347 -1.992438
-4.4836626 2.912035 -1.9430184
-4.0543952 2.4021091 -1.9725057
-4.5424781 2.4873908 -1.9710175
-4.1440835 2.3885465 -1.9562722
-4.0240293 2.5174692 -1.9399778
-4.0354033 2.4338789 -1.9725057
-4.0361562 3.0589397 -1.9235853
-3.9768577 2.7680743 -1.929696
-4.4121799 2.8500383 -1.9439096
-3.7648208 2.7304146 -1.9442679
-4.1604009 2.9424303 -1.9365908
-4.0568871 2.7026963 -1.942449
-3.7833753 2.7077742 -1.9450985
-3.2740228 3.1866908 -1.9068946
-3.127023 3.2507455 -1.8803178
-3.9194829 2.543668 -1.954234
-4.0791178 2.6623204 -1.9408548
-4.2562008 2.1228416 -1.992438
-3.9168084 2.6520345 -1.932645
-4.2173576 2.6731172 -1.9430283
-4.1003547 3.1718707 -1.9162638
-3.9190352 2.6356733 -1.9293863
-4.3723521 3.2153308 -1.9182396
-3.8898942 2.8457265 -1.9185373
-4.5327296 1.8177044 -2.0010824
-4.1674557 2.743577 -1.9414669
-4.4165707 2.2432137 -1.9767221
-4.2755656 3.0062296 -1.933449
-4.557651 2.8196421 -1.9481659
-4.3254337 2.5637605 -1.957864
-3.5180562 2.980206 -1.9259964
-3.4210358 3.0584323 -1.9160303
-3.870842 2.6170924 -1.954234
-3.9994094 2.8835969 -1.9164809
-3.785315 3.0987096 -1.9000839
-4.3561177 1.9631861 -2.0024042
-3.832068 3.2713239 -1.9128752
-4.2323499 2.4954269 -1.9591872
-3.9610331 2.9515243 -1.920385
-3.673461 3.0688672 -1.9041904
-4.119812 2.3030491 -1.9758276
-4.1205411 2.9727988 -1.9304708
-3.5929286 2.9010975 -1.9293185
-3.9660993 2.5777373 -1.932645
-4.3328633 3.2497187 -1.9139314
-4.1682382 2.9087749 -1.9312357
-4.1405358 2.6107454 -1.9512166
-4.2502103 2.6380661 -1.9469328
-4.3654308 2.3217115 -1.972737
-4.4207606 2.2104459 -1.97194
-4.3488688 2.3215871 -1.9663604
-3.7495975 3.1389678 -1.8993031
-4.311749 3.0881102 -1.9261057
-4.4039922 2.2193186 -1.9671577
-4.3391914 2.9500897 -1.9416683
-4.3997312 2.252012 -1.97194
-4.2782478 2.1955526 -1.9676784
-3.7532973 2.7400675 -1.9426068
-3.7678199 3.1141818 -1.8985223
-3.2814178 3.1738436 -1.9052335
-4.1737709 2.3362825 -1.9562722
-4.5190735 1.7124258 -2.0273199
-4.1225109 2.6357121 -1.9504195
-3.4349329 3.0959527 -1.8853906
-4.5565033 3.2659624 -1.9179504
-4.1397152 2.2972271 -1.9824718
-3.7855532 3.1187279 -1.9055496
-4.398397 2.4326613 -1.9570831
-3.7566943 2.8107877 -1.9155358
-3.5960202 3.1509123 -1.9017993
-4.1338725 3.2657495 -1.9121344
-3.7641172 2.9777119 -1.9097699
-3.6816792 3.0561323 -1.9033931
-4.3810191 2.4862797 -1.961768
-4.5476236 2.2508633 -1.9773842
-3.4688301 3.2476215 -1.8890463
-3.8860292 3.0406439 -1.9180425
-4.08286 3.0243433 -1.9304708
-4.4546361 2.5867178 -1.9595419
-3.896847 2.5815077 -1.9550647
-3.4896431 2.9939036 -1.9201828
-4.3269877 2.1352756 -1.975011
-3.9982388 2.7273464 -1.9273049
-3.8876216 2.6592102 -1.9236828
-3.9880526 3.2799318 -1.9080446
-4.3684182 2.920013 -1.9446571
-3.7930863 2.7552698 -1.9139062
-3.9655931 2.5122039 -1.9642004
-4.0362329 2.7071898 -1.9360725
-4.1153369 2.6128347 -1.942449
-3.8188612 2.670213 -1.9484204
-4.5537581 2.4472234 -1.9671923
-3.9378746 3.1431594 -1.9128752
-4.3904171 2.4733992 -1.9625489
-4.0986414 2.4229174 -1.9464954
-4.3197246 2.3409233 -1.9591872
-3.7697911 2.7747502 -1.9106473
-4.5064583 1.8484601 -1.9953793
-4.2296262 3.064209 -1.9319547
-3.8054619 3.2796371 -1.9067549
-3.9424105 2.9763534 -1.920385
-3.83952 3.2568634 -1.9113449
-4.3515801 1.9776236 -2.0032349
-4.5239267 2.7342384 -1.9573593
-4.4233232 2.410213 -1.961768
-3.855288 2.8954916 -1.9193343
-4.4930654 1.8760439 -1.9945647
-3.2949605 3.2132075 -1.875614
-4.5060482 2.5415275 -1.9687222
-4.4813361 1.8282346 -2.030642
-4.5517206 2.2174578 -1.9726993
-3.6630619 3.2367527 -1.8985223
-3.7331121 2.8299551 -1.9122766
-4.535893 3.2945268 -1.9179504
-3.3659227 3.1055851 -1.9118778
-3.9399114 2.9551768 -1.9141384
-4.0288043 2.5029042 -1.9383482
-3.6730626 2.8348255 -1.9392849
-4.2663035 2.8303523 -1.9465364
-4.3843956 1.9264899 -2.0073872
-4.399138 2.2692206 -1.9751283
-4.2919588 2.168628 -1.9676784
-4.3961682 2.6742325 -1.9572469
-3.8538983 2.7078533 -1.9236828
-4.4378719 1.9355673 -1.9823436
-3.654124 2.8384829 -1.9334711
-4.5116115 1.7421142 -2.0289807
-3.9405777 2.5311208 -1.9592172
-3.5038767 3.0595224 -1.8976117
-4.3238339 2.1085286 -1.9684933
-4.3371215 3.0652809 -1.9290471
-3.2835445 3.1559105 -1.9002503
-4.4551229 3.1483979 -1.9290097
-4.3052421 2.9668448 -1.9341962
-4.4045959 3.1965077 -1.9239836
-4.1527925 2.5912046 -1.9512166
-4.0920639 2.6525099 -1.943246
-4.1947846 2.3135059 -1.9595312
-3.4303787 3.2935097 -1.8906404
-3.4029405 3.1553109 -1.8927232
-4.0553899 2.4841595 -1.9440511
-4.0814753 2.7989061 -1.9242889
-3.8807585 2.6724386 -1.9244977
-3.404268 3.2888908 -1.8810757
-3.4680307 3.0863757 -1.8935381
-4.0305843 2.4136407 -1.9658614
-4.0025864 2.5480232 -1.9391629
-3.7763209 2.7207177 -1.9459288
-4.0905461 2.3546381 -1.9758276
-3.9896514 2.7398934 -1.9273049
-4.5377326 1.6303428 -2.022337
-4.0724869 2.4595656 -1.9448658
-4.4444103 2.1875374 -1.9767221
-3.2389517 3.2696574 -1.875614
-3.7840223 3.2818322 -1.9006344
-4.082427 3.1888881 -1.9147692
-3.834537 3.0789287 -1.9110152
-4.3941269 2.9829879 -1.9290471
-4.3364768 2.7320323 -1.9488314
-4.01367 2.5373712 -1.9407924
-3.4004099 3.0786386 -1.9151996
-4.1794877 2.3222809 -1.9554573
-4.2443924 2.2290518 -1.9611605
-4.4523592 2.3718486 -1.9648912
-3.9828374 2.4882102 -1.9650308
-4.1889663 2.213938 -1.9841329
-4.387794 2.998893 -1.9305179
-4.2970953 2.0430326 -1.9932684
-4.5006289 1.8626075 -1.9953793
-4.3446469 2.5383732 -1.9594256
-4.5315657 1.8254972 -2.0018971
-3.4693961 3.0145695 -1.9193522
-3.2633333 3.2530892 -1.8780581
-4.1187234 3.1449273 -1.9155166
-3.4558196 3.0218379 -1.9168608
-4.1467967 2.3728199 -1.953828
-4.4064121 1.9032868 -2.0123706
-3.5834291 2.921469 -1.93181
-4.4154563 3.1622932 -1.9196754
-4.2648225 2.2056603 -1.9644195
-3.8575745 3.0381274 -1.907892
-4.0444717 2.8489206 -1.9235083
-4.4735608 3.1090786 -1.9261377
-3.9032614 2.827364 -1.9185373
-4.3219795 2.3598087 -1.9639692
-4.4266453 2.9647038 -1.9356651
-4.3843961 2.0365446 -1.9790848
-4.1502991 3.1278589 -1.9214942
-3.6867557 2.887126 -1.9114619
-3.8091581 2.7486436 -1.9179798
-4.4506526 1.9244804 -1.9856025
-3.8403442 2.9031322 -1.9161462
-4.4630551 1.8535283 -2.0273199
-3.8191128 2.6793687 -1.950912
-4.2453799 2.8550248 -1.9450063
-4.2926445 3.1051021 -1.9239
-3.9254081 2.8060076 -1.9209286
-4.2819381 2.9906721 -1.9319547
-4.5187583 1.728592 -2.0298114
-4.4544382 2.9329369 -1.9378712
-3.6328909 2.8773444 -1.9367932
-4.1191297 2.3915598 -1.9473103
-4.5513854 1.6191751 -2.0264893
-4.438993 2.4006433 -1.9656721
-4.0994987 2.3426857 -1.976658
-4.5078077 1.7569504 -2.0298114
-4.5372806 2.7228527 -1.9596009
-3.3151214 3.1465564 -1.907725
-4.3131657 3.2881467 -1.9168034
-3.7152569 2.8533554 -1.9122766
-4.2409644 2.8714783 -1.9473015
-4.2700601 3.1297984 -1.9224293
-4.2859721 2.4283159 -1.9647666
-4.5440488 2.830972 -1.9459598
-4.2454877 2.4583991 -1.9559988
-3.9973986 3.1094174 -1.9235853
-4.4603934 3.1311901 -1.9268556
-3.524631 2.9667795 -1.9243354
-3.7077258 2.8661222 -1.9130913
-4.2608504 2.4316759 -1.9559988
-4.2511077 2.4706447 -1.9607812
-4.0896158 2.6326337 -1.9376665
-3.732569 3.0200803 -1.9105667
-4.5557604 2.8085439 -1.9452245
-3.5490332 3.0211318 -1.9016851
-3.852113 2.6220145 -1.9484204
-4.394186 2.8777034 -1.9439096
-4.1136703 3.007416 -1.9365908
-3.4354277 3.2776234 -1.8874522
-3.9480019 2.922749 -1.9086727
-3.3588023 3.1186342 -1.9135386
-3.5086913 3.2235236 -1.8946258
-3.6412737 3.2584841 -1.8977412
-4.3468957 2.9354138 -1.9409212
-4.1068373 2.3297958 -1.976658
-4.4139085 1.9582912 -1.9766403
-4.149941 3.2573698 -1.915076
-4.1568351 2.3440533 -1.9513839
-4.0831294 2.3674762 -1.9758276
-4.478797 2.563307 -1.9633671
-4.0798993 2.6812155 -1.9456371
-4.0505772 2.8721833 -1.9313163
-4.52953 1.7001654 -2.0298114
-3.3623741 3.1772666 -1.8862053
-4.2594957 2.2198834 -1.9652342
-4.3673415 3.0253363 -1.9297826
-4.4956255 2.8797634 -1.9400773
-3.8773072 3.2059894 -1.909815
-4.4930072 3.08091 -1.9261377
-4.1651301 3.2166669 -1.9099286
-3.2835383 3.222271 -1.8747991
-4.3463869 2.3378699 -1.9687518
-4.1470618 2.7676783 -1.9399052
-4.4682846 2.9220057 -1.9400773
-4.4551082 2.6152298 -1.9656621
-4.3783112 2.2933774 -1.97194
-4.5041842 2.30037 -1.9703568
-4.1021276 3.1937945 -1.9222412
-4.24615 2.142875 -1.992438
-4.4366632 1.8834836 -2.0215063
-3.6984298 3.196281 -1.8985223
-3.4878273 3.2245095 -1.8882493
-3.8099189 2.9369423 -1.9145521
-3.6099815 2.9480343 -1.9016851
-4.1313567 2.9609244 -1.9312357
-3.3457232 3.1815579 -1.8821317
-4.5156178 2.5282707 -1.9694875
-33.614502 14.49245 -2.1333175
-31.602118 13.055485 -2.1683857
-31.609728 12.942555 -2.1658854
-32.023537 12.818967 -2.1893601
-33.566292 14.346703 -2.1267967
