# .PCD v0.7 - Point Cloud Data file format
VERSION 0.7
FIELDS x y z
SIZE 4 4 4
TYPE F F F
COUNT 1 1 1
WIDTH 1548
HEIGHT 1
VIEWPOINT 0 0 0 1 0 0 0
POINTS 1548
DATA ascii
5.4802709 1.6940858 -1.74675
4.8235335 0.80745721 -1.7628616
4.3860774 1.8762692 -1.8019452
4.2859869 1.7131956 -1.7829618
4.8903427 1.2074144 -1.7681754
4.9996495 1.4807888 -1.7721927
5.1361427 2.0707192 -1.7671772
4.4606647 1.2285323 -1.7876468
5.3484235 1.4115715 -1.7335455
5.8625607 2.7300694 -1.7297515
4.5245671 1.9711316 -1.7805098
4.2806187 2.482347 -1.7856572
4.8090305 0.92979348 -1.7658032
5.4226813 1.8933984 -1.7492774
5.8964763 1.0824736 -1.7182381
5.4883442 0.5559212 -1.728353
5.5450931 2.4157166 -1.7349888
5.162848 1.386793 -1.7632331
4.9700289 0.7479344 -1.7638671
4.5031166 2.3312798 -1.7810993
5.1568737 1.2899365 -1.7523679
4.6319952 1.4379307 -1.7817695
4.8428259 1.358372 -1.7653034
4.7760587 1.6529061 -1.7746375
4.6391668 1.4082474 -1.7810222
4.2728024 0.96082038 -1.7762169
5.73736 0.84484398 -1.7198744
5.759346 0.64566749 -1.7186399
6.3838358 2.2889132 -1.707022
4.774879 0.80723643 -1.7787807
5.8545923 1.3335817 -1.7212293
4.5525374 0.62654561 -1.7743728
4.5184531 0.87720609 -1.7774962
6.0743108 2.2025397 -1.7280697
5.6757236 0.52645159 -1.734745
4.5761008 1.808236 -1.7746271
4.4984508 2.6442919 -1.7735875
4.7339478 1.2280883 -1.7628616
5.5322261 2.4308434 -1.7331941
5.1019955 0.909715 -1.760337
5.4013357 2.747354 -1.7385781
4.789937 0.99657494 -1.7635972
4.320044 1.3004398 -1.7846322
4.3214412 0.67616254 -1.7737725
4.9426346 1.5830564 -1.7631265
4.7638068 1.6654012 -1.7717655
5.0807228 1.7045248 -1.7679864
5.4172325 1.0710772 -1.7303002
4.4637308 2.1052725 -1.7805098
5.6706729 1.2589465 -1.7229615
4.2861547 2.0776131 -1.7988852
6.271841 2.3014066 -1.7338291
5.1504884 1.3227875 -1.7530472
5.229104 1.7353371 -1.7572942
5.5761137 1.2360682 -1.7385361
4.7327347 1.0081686 -1.7772863
5.9090548 0.8655622 -1.7110591
4.3574204 2.6152472 -1.7854075
4.438406 2.0009682 -1.7892413
4.7033744 1.4515507 -1.7753625
5.2667861 1.7874253 -1.7439308
4.7595553 2.1159537 -1.7701007
5.1131763 1.5208768 -1.7591586
5.3578272 1.3601543 -1.7322476
5.5614119 1.2145811 -1.7322178
6.3832359 1.9186721 -1.7294704
6.2323999 1.5841811 -1.7191
4.7401471 1.2773932 -1.770215
6.4086156 2.2185864 -1.707022
4.2640681 0.7015633 -1.7939436
5.3296151 2.1767862 -1.7537001
5.7613168 1.7582583 -1.7272117
6.2657285 1.446751 -1.7191
5.5700021 2.3232303 -1.7308011
4.330759 0.66373348 -1.7770315
5.8429437 1.4083641 -1.7230239
5.2802043 0.67585987 -1.7550843
4.4371524 2.0172312 -1.7914829
5.6712093 2.6346014 -1.7426959
4.4882083 2.676311 -1.7763772
4.5004735 1.5199587 -1.7935299
5.7585297 2.4476423 -1.7438602
5.7792525 0.56534636 -1.722344
5.3500943 2.3864226 -1.7390139
6.1915903 1.7720594 -1.721903
5.0233479 1.2589945 -1.758942
5.7171249 1.9030799 -1.7278099
4.4851489 1.91287 -1.7922301
4.2832446 1.7591834 -1.7892083
6.3171353 1.0257329 -1.7101303
5.8829322 1.0609673 -1.712854
4.6356988 2.3832717 -1.7714953
5.6559558 1.4815805 -1.7353095
4.4888558 1.026173 -1.778277
4.2973337 2.4382567 -1.7827159
5.3736777 2.3566158 -1.7421008
5.0439839 2.2677019 -1.7645417
4.9723544 0.73231548 -1.7638671
5.6001902 1.1219537 -1.7385361
5.6493616 2.6677132 -1.7409492
5.4871602 2.53548 -1.7337923
5.7158637 0.97978044 -1.7198744
5.0976844 0.83485544 -1.7540601
4.3754869 1.8961946 -1.8011804
4.7480788 1.2475867 -1.770215
6.4926786 1.2476985 -1.7142144
5.3138757 2.1801739 -1.7492774
4.7818346 2.0365779 -1.7659162
4.5838013 1.5905299 -1.7825166
4.8772349 0.63616323 -1.7738918
6.4769855 2.0167553 -1.707552
5.687665 1.1320456 -1.7198744
5.0673761 1.0025287 -1.7540601
5.9526834 0.56826591 -1.7134521
4.8858662 1.8052514 -1.7701007
4.8455052 0.74081749 -1.7672738
6.0542216 1.3616863 -1.7281412
4.9408236 0.91109437 -1.7631493
4.8453083 2.6932526 -1.7691538
4.5399785 0.82238722 -1.7821811
4.297358 0.53468484 -1.7980964
5.8789511 1.0507431 -1.7110591
5.4628391 2.61852 -1.73798
5.4378963 2.1738248 -1.7383964
4.6276383 1.4205985 -1.7780336
5.3261261 1.4389579 -1.7599297
6.328608 2.110146 -1.7311047
5.3905411 1.1806399 -1.7290021
4.9665103 2.0031533 -1.7666285
4.7648025 2.1272047 -1.7735875
5.2688675 1.6298528 -1.7592708
5.4391007 0.94281942 -1.7296511
4.8611555 2.2601955 -1.7686654
5.788662 1.6382062 -1.7248185
6.0996861 2.7298365 -1.7343739
4.9162102 1.7378482 -1.7721927
5.0911241 2.243979 -1.74458
4.8575993 2.2678275 -1.7686654
4.6711988 0.81039566 -1.7897048
4.9537497 1.53531 -1.7617317
4.6161284 1.0727007 -1.7889398
5.8600245 1.2096035 -1.7146485
5.5302143 1.5302933 -1.7473818
6.3802443 2.3102582 -1.708082
4.3141799 1.3134803 -1.7838352
4.7194567 1.3918154 -1.7746271
4.42103 2.0434966 -1.7899884
4.5674682 2.1766255 -1.7767916
5.616231 2.7498534 -1.7426959
4.3591461 1.4777522 -1.7774962
5.1771922 1.9282893 -1.7625651
4.3612518 2.3140669 -1.7812451
4.7268906 1.2977833 -1.7672738
5.9620705 1.8019416 -1.7351276
6.1175971 0.9574675 -1.7240659
5.3959584 2.2759309 -1.7383964
5.4031959 1.1213011 -1.7290021
4.6279259 1.7037222 -1.7790391
6.0900598 1.1403152 -1.7252302
4.3960719 1.8479688 -1.8011804
5.0409198 1.8244011 -1.7686654
4.8054276 1.0312167 -1.7724211
5.3417959 1.3179421 -1.7546586
4.2969332 0.8463912 -1.7762169
4.977067 2.4283011 -1.7671772
5.2492433 2.3686478 -1.7543319
4.6081772 1.7459629 -1.7775683
4.9444103 2.0668707 -1.7679864
5.5933867 2.2815518 -1.7325957
6.3237691 2.4712577 -1.7091419
4.8333945 0.79346454 -1.7658032
4.2709594 0.63398707 -1.7922828
4.9473095 2.5009503 -1.7691538
6.1487727 1.9600623 -1.7258272
5.4676671 1.7090615 -1.7442226
4.6073327 1.0859567 -1.7866447
5.1396856 0.57019836 -1.7561526
6.4010353 1.8584279 -1.7294704
4.3711624 1.0941865 -1.7822411
5.3309684 1.368691 -1.7553176
5.984242 1.7268814 -1.7351276
4.9955482 1.3863124 -1.7610344
5.0957503 2.1293387 -1.7619064
5.2104602 1.8021278 -1.7586118
4.9711132 2.4447496 -1.7678362
5.6269522 2.2131565 -1.7343905
6.1293325 2.6626043 -1.7343739
5.8935099 1.0341998 -1.7146485
5.3984618 1.9613889 -1.7492774
5.4556117 0.60230958 -1.7500464
4.424644 0.88116533 -1.7846322
5.609221 1.60188 -1.7309878
4.448596 1.9552692 -1.7855053
4.6942282 2.6393819 -1.7774934
4.8906221 2.2367253 -1.7747769
4.8184381 0.9002201 -1.7672738
4.3904781 1.8133496 -1.7935299
4.2933183 0.87374794 -1.7770315
4.7257547 2.181473 -1.7687056
5.4649258 0.56857824 -1.7520231
4.3344116 1.9435555 -1.7935299
5.3974333 1.1023829 -1.7257566
4.785769 2.0559771 -1.7701007
5.1470699 2.0874605 -1.7413346
4.9023895 2.5757368 -1.7671772
4.651093 0.85975176 -1.7851146
6.2032118 2.5113819 -1.7370982
4.7886038 1.011992 -1.7643324
6.0998158 2.0719469 -1.7224636
5.039556 1.8059812 -1.7659492
5.1393681 2.1410258 -1.745878
5.6893282 1.113799 -1.7192571
5.2727003 2.6048276 -1.7464225
6.160398 1.8577738 -1.7202212
4.6646905 0.84705764 -1.7897048
4.8675137 2.7491269 -1.753667
6.2107744 2.4352174 -1.7311047
4.8075657 0.56608272 -1.7780336
5.0095963 1.3563368 -1.7631265
5.7790766 0.72165197 -1.7279006
4.6094441 1.5026815 -1.7810222
5.3885512 1.1358756 -1.7251076
4.3763609 1.0808791 -1.783038
5.7446828 1.7927414 -1.7254169
4.8049326 2.0107822 -1.7701007
5.6379638 0.86465496 -1.7360088
4.5518909 0.67026085 -1.7767155
4.6264415 0.9004631 -1.7782292
4.5123343 2.6428547 -1.7777719
5.0713091 1.0945675 -1.7624291
4.9920731 1.3348918 -1.7547575
5.9665723 2.4544852 -1.7252666
4.4945745 1.525857 -1.7920001
4.2777562 0.91260493 -1.7737725
4.2783227 1.8045486 -1.794674
6.2642002 1.2918909 -1.7090092
4.618021 2.4294484 -1.7735875
6.2555714 2.3177199 -1.7311047
6.4771543 1.564554 -1.7289252
5.3610377 2.3711557 -1.7402486
5.8742728 1.097568 -1.7122557
6.3781772 1.8952783 -1.7262012
4.977252 1.9712065 -1.7659492
4.543098 2.235513 -1.7782273
5.3098173 1.590506 -1.7374401
4.9711847 1.9506915 -1.7611957
4.6800189 2.2864914 -1.7701007
4.5962567 1.6111518 -1.7899884
4.3588934 2.3303649 -1.7834512
6.2408848 2.3569794 -1.7311047
5.6030531 1.0677351 -1.7360088
4.7580833 1.1548663 -1.7650677
4.7542748 2.4893224 -1.7707025
4.4696455 1.9395182 -1.7907356
5.677074 2.0194221 -1.7278099
5.7720332 2.4106643 -1.7432781
4.5972109 1.5629128 -1.784011
4.7587423 2.4726217 -1.7693444
4.853406 1.8804332 -1.7687056
6.1191773 2.6810696 -1.7338291
4.9595075 0.82622427 -1.7645853
5.5144014 1.5446398 -1.7435907
4.6315045 1.6885456 -1.7783039
5.447566 1.7782154 -1.7448545
4.8267131 1.4277757 -1.7667391
4.3141222 2.2724397 -1.7922301
5.1244864 0.70747495 -1.75685
4.5641899 1.6239589 -1.7795279
5.2938185 1.5468919 -1.7592708
6.0323811 1.5271456 -1.7333808
5.1556067 2.5745864 -1.7555957
5.3184099 1.5749091 -1.7387382
4.4307756 1.7329296 -1.7965902
5.5536714 1.3413883 -1.7391679
4.7480493 0.98033583 -1.7810222
4.9877892 1.9392042 -1.7652701
5.6860046 1.2062505 -1.7241963
4.5448961 1.7143455 -1.7847582
4.8567443 1.263975 -1.7609951
5.9457707 0.67144221 -1.7146485
4.6453662 0.91917688 -1.7874098
5.2876177 1.5811883 -1.7605884
5.6727438 1.2407061 -1.722344
5.2884283 1.6176441 -1.7645417
5.1357055 0.53715265 -1.7533629
4.9615464 0.77854729 -1.7624314
5.3130746 1.5460713 -1.7341946
4.5118256 1.8244698 -1.7884942
4.9686875 1.5057579 -1.763824
5.4430523 0.87316209 -1.7270547
4.9126215 2.6237972 -1.7465271
5.4140091 0.97992969 -1.7546586
4.7256918 2.1994374 -1.7714953
4.4864068 1.0926466 -1.7837427
4.3192949 0.68973655 -1.7737725
4.2925644 2.7064159 -1.7825356
6.4832892 1.9963987 -1.707552
5.624054 0.96225178 -1.7366406
6.1057911 1.0640322 -1.7258123
4.4777393 2.7083051 -1.7791669
4.8754668 2.6501477 -1.7711304
4.3218107 2.0199063 -1.8019452
6.2621226 1.4874028 -1.7207818
4.5116129 1.4141123 -1.7843497
6.3500433 2.0510066 -1.7316498
5.0437169 1.7717525 -1.7632331
5.4136548 2.2235169 -1.7371616
5.1665931 1.3356727 -1.7598376
5.3859143 1.1241351 -1.7546586
5.2707968 0.75899142 -1.7557633
4.4381647 0.84041852 -1.7870234
6.120575 0.93824494 -1.7240659
5.321053 2.2025988 -1.7543319
5.1274805 2.1644804 -1.745229
4.4737258 1.0745863 -1.7767155
6.0461535 2.2786968 -1.7280697
5.7983265 2.3364992 -1.7421138
4.9850955 1.9201024 -1.7618748
5.6594448 2.6507692 -1.7415314
4.9813232 1.4161603 -1.758942
5.773664 0.58310473 -1.7211094
5.6479402 1.4131955 -1.7272834
4.7045517 1.8209256 -1.7710474
4.2701902 0.67503256 -1.7947743
5.3683443 1.3180299 -1.7322476
4.5483785 2.5689132 -1.7756798
5.4214206 1.9312049 -1.7530683
5.7437496 0.82737577 -1.7211094
4.2625957 2.5168293 -1.7863925
6.2797313 1.2539791 -1.7112516
4.2662063 0.97340453 -1.7745874
5.177937 1.2435167 -1.7557633
4.6562762 2.3386414 -1.7707981
5.0180187 1.3248358 -1.7631265
4.802433 2.3908789 -1.7700235
4.3433414 1.5566338 -1.7821811
4.3001394 0.77002943 -1.7713284
4.5642929 1.6401989 -1.7817695
5.9831562 2.4393179 -1.7280697
4.9318333 1.622401 -1.763824
5.1256948 1.498376 -1.7611957
4.577682 2.1462815 -1.7753553
5.468565 0.55158865 -1.7526821
4.5495758 1.3400496 -1.79047
5.0815105 2.7299588 -1.7574912
4.304688 0.54927927 -1.8022488
4.372674 2.2763443 -1.7783039
4.5574694 1.8841002 -1.7790391
5.6421037 0.81095862 -1.734745
5.3444557 1.2830584 -1.7526821
5.2671585 1.7506695 -1.7400362
4.8275356 0.83929282 -1.7665385
4.7448077 1.7513928 -1.7760735
4.89112 2.6091321 -1.7691538
4.6025944 2.0878105 -1.7746375
4.4279027 1.3097309 -1.7837427
5.7299557 2.4994857 -1.7421138
5.1304145 0.58553356 -1.7533629
4.7310719 2.5727568 -1.7774934
4.5124412 1.4299259 -1.7866447
5.2124515 1.0712956 -1.7544053
4.5412927 0.72710449 -1.7759348
4.7012477 0.62661451 -1.79047
4.4657836 0.60090047 -1.7822411
6.3747025 0.56699884 -1.7101303
5.2979784 1.5120698 -1.7572942
5.7282858 0.96343929 -1.7229615
5.6292343 1.4933941 -1.7279006
6.2422299 1.5449933 -1.7191
4.3131323 1.6693361 -1.7868659
4.3885503 2.2496645 -1.7790391
6.3431692 2.4101899 -1.708082
4.4548554 0.556831 -1.7750676
5.3994088 1.9809252 -1.7518046
4.457088 2.162257 -1.7878633
6.2348361 1.6056368 -1.7213424
4.6496315 0.83687401 -1.7828196
6.2040658 2.4100618 -1.726746
4.8491445 1.2782552 -1.7595592
4.9468789 2.5627372 -1.7471762
4.9612026 2.5307367 -1.7465271
4.512465 0.89812011 -1.7767155
5.5959291 1.6744542 -1.7334573
5.8482361 1.2743634 -1.7152469
4.3192773 0.74556428 -1.7778462
5.0833921 0.98904634 -1.758942
5.1195478 1.479081 -1.7571213
5.2095699 1.9152488 -1.7400362
5.8806801 2.0636261 -1.7362918
4.2993398 2.0673034 -1.8019452
4.9125204 0.96976846 -1.7566872
5.5388598 1.4394883 -1.7423271
5.1729212 1.982336 -1.7678362
5.8475699 1.312724 -1.7176399
4.507401 0.94138139 -1.778277
4.4603677 0.57171339 -1.7782558
4.261023 1.4824343 -1.7846322
5.2788315 0.55793297 -1.7496518
4.5618773 0.56952721 -1.7751538
6.4390745 1.6843851 -1.726746
5.0552487 2.3236699 -1.74458
5.7163644 2.5256829 -1.7415314
6.3704834 0.52633256 -1.707888
4.3464789 1.5423566 -1.7814004
5.2930608 2.2497096 -1.7518046
6.3004594 1.1452919 -1.7112516
6.4485373 1.6005118 -1.7234769
6.1160851 0.96707809 -1.7240659
4.4866757 1.0108222 -1.7759348
5.8075628 2.297889 -1.7403672
5.5521808 1.3872201 -1.7423271
5.688189 2.5560067 -1.7374561
4.3482108 1.1321727 -1.7766616
5.3431854 2.1432583 -1.7537001
6.0442767 2.2563684 -1.7252666
5.06989 0.96998096 -1.7526655
4.9935308 1.4280336 -1.7645211
4.5469985 2.201992 -1.7739192
4.5969143 1.1446387 -1.7881747
4.7285905 0.52463704 -1.7965902
4.506072 1.838634 -1.7884942
5.508029 1.6083173 -1.7473818
5.3504429 1.2578607 -1.7526821
4.4201818 0.86589241 -1.7814441
5.4629459 0.80612195 -1.7303002
5.4588404 0.85817695 -1.7315981
5.6708007 1.4000854 -1.7334573
4.6745238 1.5478599 -1.7760978
5.3399515 2.1614413 -1.754964
6.4926243 1.9658267 -1.707552
4.8822398 2.2142832 -1.7686654
5.0755372 2.1961722 -1.7645417
5.4107504 0.94431359 -1.7513642
5.3557491 1.4858689 -1.7426326
4.2817574 0.73891604 -1.8047404
5.914959 0.83796799 -1.7116575
4.5975313 1.5791825 -1.7862525
6.2780538 1.212715 -1.7084485
5.2057166 1.8555335 -1.7632239
6.0533414 2.3030829 -1.7325544
4.6877093 1.1927303 -1.776539
6.1316071 1.9758826 -1.7224636
5.0458708 1.736922 -1.7598376
5.8654671 2.162432 -1.7421138
5.2761912 0.69219095 -1.7544053
4.689321 1.2088687 -1.7787807
4.7872691 1.572946 -1.7688932
5.2931833 1.6766113 -1.7406856
5.2597256 0.78267717 -1.7530472
6.1359024 2.6425686 -1.7338291
4.5365295 0.85124874 -1.7829618
4.2994018 2.3080227 -1.7937245
5.2944965 0.53443742 -1.7544053
6.2353392 1.6266525 -1.7230242
5.0836015 1.6169838 -1.7591586
5.0619678 1.7247542 -1.763912
5.3743448 1.0866176 -1.7480698
4.59446 2.1190579 -1.7767916
4.607892 1.7623962 -1.7797744
5.8803878 1.1369349 -1.7164433
4.958323 1.5708604 -1.767311
4.9771872 0.68515664 -1.7631493
4.5046873 1.8712356 -1.7929776
5.8795986 2.6931791 -1.7297515
5.5146556 1.9766356 -1.7390139
4.4037533 1.3326354 -1.7767155
5.2061687 1.8373113 -1.7612474
4.7263069 1.0378833 -1.7772863
4.5506654 1.3558887 -1.7927649
4.3172684 2.0425923 -1.8042405
5.1068549 2.2127061 -1.745229
5.2638478 0.74107224 -1.7523679
4.8644395 0.61903864 -1.7680092
5.4365196 0.78243178 -1.7513642
6.182178 1.8114601 -1.7224636
5.5837302 1.1552362 -1.7353768
4.3011351 0.56257826 -1.8014184
4.833159 0.87153113 -1.7709506
5.5470343 1.4230075 -1.7435907
5.3602161 2.053031 -1.7480136
5.6657405 1.3234224 -1.7260485
4.3898892 1.8292375 -1.7958252
4.8705053 1.1942842 -1.7595592
4.3081026 0.7017799 -1.769699
5.7784657 1.694279 -1.7266133
4.7681556 2.4585285 -1.7700235
6.2874098 1.2349703 -1.7123728
4.3150401 1.2915894 -1.7814441
5.322413 1.3487512 -1.7507054
4.2734451 0.76518291 -1.8030795
5.2631121 1.6734408 -1.7619064
4.4733305 2.6865685 -1.7735875
4.6188745 1.7334092 -1.7797744
5.4310403 2.1908967 -1.7383964
4.3322268 0.62915319 -1.7754022
6.1545916 0.69745106 -1.724648
5.204824 2.7256587 -1.7445704
4.5889649 1.2271657 -1.7935299
4.7755094 1.0720868 -1.7643324
4.4705667 2.125603 -1.7863925
4.8525891 0.6796211 -1.7665385
5.4944453 1.6607 -1.7480136
5.3695407 1.1736618 -1.7526821
4.5344672 0.71135658 -1.7720306
4.7428346 2.1712446 -1.77289
4.9286618 1.6557091 -1.7666136
4.4763165 0.51661938 -1.7822411
5.5856571 1.1830789 -1.7379044
4.2968359 2.2892189 -1.7892413
5.0786467 2.2767053 -1.745229
4.5563841 0.59792906 -1.7743728
4.6572747 0.74795371 -1.7797594
5.1278324 1.429222 -1.7550843
5.4592261 0.63741714 -1.7526821
6.4628716 1.5825688 -1.7262012
4.4391713 1.6802377 -1.7920001
4.295208 0.50706762 -1.7956048
5.5986857 1.6178869 -1.7291355
6.1024189 1.0832078 -1.7258123
5.0881958 0.89085728 -1.7540601
5.4603586 1.7633933 -1.7473818
5.9230866 0.84856981 -1.7146485
5.5157127 1.8990264 -1.7309878
5.1303701 2.6328373 -1.7568594
5.7535558 2.4883747 -1.7473534
4.6964822 1.4736972 -1.7753625
6.1665359 0.56176513 -1.7240659
4.7864776 0.7474665 -1.7795279
5.969532 1.7837589 -1.7357097
4.6816339 1.2383068 -1.7787807
5.6786036 1.185999 -1.720492
4.4724197 2.7242944 -1.7805617
5.6045151 1.6387213 -1.7328399
4.7700768 0.79097933 -1.7757919
4.3588624 1.120293 -1.77985
4.6413116 0.94870675 -1.7881747
4.8148742 0.93873084 -1.7687445
5.5781908 1.1632475 -1.7341132
5.6778207 0.54462385 -1.7360088
5.2273517 0.95502871 -1.7516888
5.1306105 2.0591741 -1.7638828
4.2901778 0.7541889 -1.8097236
6.1764574 1.8308718 -1.7224636
5.4703012 0.75459784 -1.7303002
5.3755264 2.0395052 -1.7511728
5.5083084 1.9547931 -1.7346921
4.3230925 2.004014 -1.7996503
6.0041714 1.69188 -1.7380383
4.3023334 1.3394889 -1.7822411
5.2655268 1.6469517 -1.7599297
4.4390755 1.2374948 -1.7798388
5.400764 0.89029223 -1.7447755
4.3514538 1.1841567 -1.7838352
6.1818771 0.58282322 -1.7293055
4.4776554 2.3718514 -1.7796636
4.9981766 2.4611919 -1.7471762
5.02776 1.2015529 -1.7554549
4.3292675 2.3849518 -1.7834512
4.9864302 0.59882498 -1.7624314
4.7331657 1.0238347 -1.7787807
4.3557301 1.9366039 -1.8004154
5.454586 2.6356678 -1.73798
5.7030807 1.9682877 -1.7302027
5.3901348 1.0457807 -1.7507054
5.0753431 1.7204769 -1.7679864
4.6953812 1.4895495 -1.7768332
4.676805 0.76604694 -1.7889398
5.2647367 1.6557782 -1.7605884
6.191328 0.64270341 -1.733963
5.8876829 1.1191531 -1.7176399
5.0218129 1.2418828 -1.75685
6.1073537 0.98534828 -1.7223192
4.6526756 1.5894787 -1.7731565
4.9882793 1.8853765 -1.7584796
4.8167138 1.9626116 -1.767311
6.2892041 1.1534933 -1.7084485
4.267262 2.5015621 -1.784922
5.0175495 1.2743163 -1.7582446
5.5585394 1.8070204 -1.7346921
5.1606092 2.0741358 -1.7439308
4.535481 1.4058444 -1.7927649
6.4229345 1.7884585 -1.7300152
5.9041553 0.9597609 -1.7140503
5.5308366 2.5134642 -1.7433641
4.2750692 2.3296151 -1.7892413
5.1785445 1.8918866 -1.7586118
4.8130426 1.473202 -1.7667391
4.3333097 1.2085792 -1.7790529
4.622324 1.4748367 -1.7825166
4.5626836 0.54779387 -1.7743728
5.6846614 2.6191969 -1.7444425
6.4320788 1.725819 -1.7278358
5.420949 0.79764396 -1.7467521
5.4066439 2.2405126 -1.7371616
4.6133909 1.0264084 -1.7835845
5.7764626 2.3699508 -1.739785
4.7688832 0.85253793 -1.7795279
5.0370402 1.1703515 -1.7561526
4.2806916 1.459121 -1.7894145
4.8070483 1.9763297 -1.7659162
4.3506284 1.5361505 -1.7821811
4.311276 0.71624202 -1.7721431
4.9603424 1.5202808 -1.7624291
5.0510316 1.756526 -1.763912
4.3179746 2.4319787 -1.7885984
5.2194023 0.98749352 -1.7510098
4.9356208 1.6407981 -1.767311
4.7786131 0.76159817 -1.7772863
4.5652914 1.904063 -1.784922
5.1564393 1.3070724 -1.7537262
4.7900419 1.6409622 -1.7782273
5.1106572 0.73836607 -1.7533629
5.1764207 1.9465127 -1.7645417
4.9217095 1.7051098 -1.7701007
4.3234401 0.60008913 -1.769699
4.6698351 1.918045 -1.7724833
5.4903822 0.59102619 -1.7303002
4.9239993 2.590215 -1.74458
4.7010279 1.8707759 -1.7767916
6.4864168 1.986213 -1.707552
8.811945 5.038229 -1.6636591
9.2357187 5.0035949 -1.6560378
9.2223969 5.0527678 -1.6580678
8.7992649 5.1971931 -1.6759553
8.7976675 5.1220732 -1.668929
8.8080349 5.0727344 -1.6661183
8.8277302 5.0105186 -1.6636591
9.7593746 5.1734605 -1.6482275
8.7866335 5.1526632 -1.6699829
10.419975 5.1998844 -1.6459039
8.8000565 5.0865626 -1.6661183
9.1863852 5.2224407 -1.6668648
9.2113171 5.1984229 -1.6685566
9.2185392 5.0884161 -1.6604362
9.250329 5.0303931 -1.6604362
9.2190151 5.1646228 -1.6668648
9.2076674 5.1202412 -1.6614513
9.7570229 5.2115006 -1.650793
9.0949068 4.4494758 -1.6590919
9.5332317 3.224968 -1.6482012
9.3953648 4.7145829 -1.6573912
9.2771854 4.060648 -1.6594435
8.964221 3.6282628 -1.6610684
9.1257668 4.3584948 -1.6569841
9.0456123 3.4479949 -1.6629076
9.1846781 4.228231 -1.6566328
9.0091066 3.5153298 -1.6610684
8.8362818 4.0206351 -1.6680571
9.3631477 3.7695761 -1.653471
8.8893471 3.8773866 -1.6662179
8.8789158 3.9060974 -1.6665857
8.9961891 3.5428972 -1.6607007
9.5253839 3.2723932 -1.6496065
9.398077 4.7530136 -1.6607747
8.9396496 3.7498064 -1.6654823
9.4324007 3.6093354 -1.6545248
9.2245455 2.8035414 -1.6555513
9.1578007 3.0207078 -1.6559191
9.5355339 3.3093576 -1.653471
9.5753279 4.2165885 -1.6489323
9.2835541 4.0114446 -1.6569841
8.8363419 3.9871595 -1.6654823
9.1035213 4.4183135 -1.6580381
9.1034718 3.2103665 -1.6577582
8.9571466 4.7543554 -1.6619027
9.0505428 3.3848481 -1.6595972
8.8033342 4.1062422 -1.6691604
8.8541994 3.9618044 -1.6665857
9.3793144 3.7077987 -1.6520656
9.3332291 3.8944731 -1.6569841
9.640379 4.0656614 -1.6489323
9.2063046 2.8295918 -1.6537122
9.1363621 3.1094353 -1.6573902
8.9317331 4.7769299 -1.6597947
8.8761835 4.8916249 -1.6608486
9.4714651 3.4884932 -1.653471
9.1259193 3.1700344 -1.6592294
9.3505163 4.802916 -1.6573912
8.9959641 3.575526 -1.6629076
8.9755745 3.6000845 -1.6610684
8.7826815 4.1640158 -1.670264
9.6149416 2.9524529 -1.6471472
9.3013182 3.9499793 -1.6555789
9.2421026 4.1495004 -1.660146
9.1925364 4.196918 -1.6555789
9.1138058 4.3879905 -1.6573355
9.1728611 2.9618888 -1.6551833
9.1501274 3.0500922 -1.6562868
9.4736786 4.5140796 -1.6543461
9.3013506 4.8889847 -1.6567146
8.9218884 4.8077569 -1.6608486
9.01824 3.4699953 -1.6595972
9.6166868 4.0912733 -1.6469024
8.9050074 4.834825 -1.6604973
9.1543598 4.2841973 -1.6559302
8.8880463 4.861836 -1.660146
9.540123 4.2908454 -1.6485941
9.2756577 4.9501276 -1.6577293
9.5903349 4.1872778 -1.6492708
8.9368811 3.7156239 -1.6625398
9.323144 4.8258929 -1.6550227
8.9003038 3.8323269 -1.6647465
9.5998268 4.1555548 -1.6485941
9.4344797 3.5762208 -1.6527684
9.5450535 4.2750449 -1.6482557
9.5265932 4.3208027 -1.6485941
8.9737816 4.7271075 -1.662254
9.5789566 3.0736356 -1.6474985
9.1284065 3.1387651 -1.6577582
9.5020657 3.398416 -1.6531197
9.1209297 3.1843648 -1.6592294
8.8271761 4.0500226 -1.6687926
8.7761316 4.1778054 -1.670264
9.2979231 3.9830329 -1.6573355
9.0685377 4.507401 -1.6594435
9.3532801 4.7672229 -1.6550227
9.4979467 4.4162388 -1.6509626
9.3288813 4.8661523 -1.6590829
9.3399544 3.8628862 -1.6559302
9.1462021 4.315444 -1.6569841
9.0923615 3.2708499 -1.6595972
9.3977966 4.6788564 -1.6550227
9.4104242 4.6667299 -1.6560378
9.4246941 3.640358 -1.6552277
9.6055984 4.1222453 -1.6472409
9.3447495 3.8305585 -1.6545248
9.0721817 3.360523 -1.6618041
9.242487 4.1148734 -1.6576868
9.196619 2.8741245 -1.6544477
9.1728468 2.9937694 -1.6570225
9.1308203 4.3433137 -1.6566328
9.2609692 4.0190091 -1.6538223
9.044982 4.6024404 -1.6633078
8.8900242 3.8610561 -1.6651145
9.6385727 4.0292397 -1.6462258
9.482378 3.4587228 -1.653471
9.56738 3.1031134 -1.6471472
9.1954947 2.8579104 -1.6533444
9.2445488 4.0810752 -1.6555789
9.2074728 4.1688228 -1.6559302
9.5458241 3.1625473 -1.646796
9.2669954 4.9829974 -1.6590829
8.9141054 3.8051257 -1.6651145
8.9169731 3.7732491 -1.6632754
9.523716 4.3556538 -1.650624
9.560236 4.2458444 -1.6485941
9.2257843 2.7722571 -1.6540799
9.2946424 4.9228187 -1.6584063
9.1838646 4.2628379 -1.6590919
9.0146179 3.5011744 -1.6610684
9.4488001 4.5386748 -1.6523159
9.1821203 2.9330587 -1.6551833
8.958231 3.658654 -1.6621718
8.9672298 4.7057238 -1.6594435
8.872838 4.926147 -1.6633078
9.6056194 2.9826427 -1.6471472
9.5545273 3.1987262 -1.6503092
9.0773487 4.4762917 -1.6583894
9.5286474 3.2567959 -1.6492552
9.5998363 3.0470688 -1.6496065
9.0106306 4.6564827 -1.662254
8.8503008 4.9866066 -1.6650645
9.1912889 2.9041948 -1.6551833
9.0416994 3.4139664 -1.6599649
9.4530497 3.5493104 -1.6541736
9.0012026 4.6874847 -1.6633078
8.7868357 4.1321983 -1.6684248
9.4860325 4.4834499 -1.6540077
9.4415846 4.5717897 -1.6536695
8.8521557 4.9511261 -1.662254
9.4746618 3.422272 -1.6499578
9.0596218 4.5384979 -1.6604973
8.8037176 4.0727515 -1.6665857
9.5594559 3.1337616 -1.6474985
9.0234632 4.6272554 -1.6619027
9.4152889 3.6537414 -1.6545248
9.0790062 3.3306429 -1.6610684
9.499692 3.3639824 -1.6506605
9.1025915 3.2422709 -1.6595972
9.3909149 3.6783161 -1.6520656
9.3877573 3.7452176 -1.6559302
9.5139322 3.3354166 -1.651363
9.6359453 2.8762836 -1.646796
9.6185131 2.920532 -1.6460934
9.4401379 3.5107374 -1.6496065
9.0912695 3.3027821 -1.6614363
9.3512602 3.7989707 -1.653471
8.8612175 3.9315643 -1.6654823
9.3209486 3.9237733 -1.6569841
9.4321041 4.6406436 -1.6573912
9.5117731 4.3863797 -1.6509626
9.4875927 4.4477358 -1.6516392
9.4271746 4.6014314 -1.6536695
8.9557714 3.6905465 -1.664011
9.0470772 4.5678234 -1.6608486
9.1386404 3.0781891 -1.6559191
12.918287 5.0380492 -1.5809436
12.360124 5.147203 -1.6049156
12.354232 5.0993195 -1.6016773
11.45101 5.0992026 -1.6156873
11.898004 5.1441841 -1.6146469
12.915307 5.0837154 -1.5827444
11.456102 5.0584269 -1.6139491
12.910702 5.1758866 -1.5866036
12.369486 5.0149312 -1.5992485
11.913699 5.0623274 -1.6121259
11.916778 5.0194697 -1.6101651
11.926835 5.1122689 -1.6166077
11.459237 5.0168786 -1.6119211
12.346328 5.0507765 -1.5981691
12.904799 5.1264687 -1.5835164
11.930121 5.0030546 -1.6110054
11.443968 5.1391845 -1.6171359
13.553974 5.0589128 -1.56908
14.650531 5.0660219 -1.5286419
13.564213 5.0142484 -1.5683448
14.658848 5.0174112 -1.5277472
14.151274 5.0217304 -1.5514245
14.651435 5.1179042 -1.5306549
8.037343 0.54157299 -1.6746414
7.4842072 1.1529348 -1.6922218
8.2250252 1.3324887 -1.659598
8.6197309 1.5847241 -1.6722927
6.9520054 0.67203313 -1.6977332
7.6167097 2.2617924 -1.6900977
6.8179593 2.4794939 -1.7019492
7.3320513 2.1968789 -1.7121154
7.4743114 1.4784224 -1.7035896
7.804543 0.94595516 -1.6706693
7.1649189 0.73490357 -1.6885595
7.7821598 1.4184235 -1.681965
6.8617015 1.3240391 -1.6987591
7.9566569 1.1812676 -1.6719877
7.4347234 1.7272525 -1.7069052
7.4884791 1.3836662 -1.7026422
8.1230822 2.1569347 -1.6753122
6.9729161 2.0027246 -1.7019492
7.1864381 2.7069705 -1.7182729
6.6075106 1.4027929 -1.6996018
6.8318386 1.7012398 -1.7126107
8.2418871 1.0050906 -1.6532271
6.7554164 1.9899234 -1.7131238
8.6090498 1.1526468 -1.6560051
7.4405999 1.7533121 -1.7097472
8.5721493 1.898473 -1.6755502
8.2411919 1.4815364 -1.6685169
8.435586 2.4904101 -1.6788077
6.8969336 1.0518376 -1.6956811
8.7489614 2.2637873 -1.6610283
6.9123001 2.2345536 -1.7044287
6.6856928 0.69764227 -1.6905913
7.8237305 0.68738145 -1.6688619
7.5266266 0.97860283 -1.6964847
7.7517653 1.2501118 -1.6684102
7.5176535 2.5839512 -1.6910015
7.4900985 2.6801674 -1.6923568
8.6630621 0.70553386 -1.6572267
7.8145618 0.8228547 -1.6697655
6.5822043 0.57908523 -1.7131248
6.6158195 2.480654 -1.71928
8.0532246 2.3978217 -1.6748875
7.9702458 1.5314008 -1.6883522
8.0252419 2.555053 -1.6791347
7.8148766 0.69900084 -1.6670548
8.1640387 1.9631543 -1.6736134
8.0059595 0.77999628 -1.6719877
6.782464 1.9171211 -1.7146628
6.5366583 0.99183506 -1.7142144
8.5781689 1.8433193 -1.6743286
7.9490781 1.231234 -1.6719877
8.6639366 0.52774918 -1.6547835
7.4745398 1.2961671 -1.6955374
7.1117959 1.12721 -1.6880637
7.7484913 1.6017637 -1.6824168
8.3686666 2.7447157 -1.6812508
7.7831721 1.0801363 -1.6697655
7.056654 1.6246502 -1.6984777
7.8480706 2.1582968 -1.6936595
7.4732003 1.4538026 -1.7021686
6.9240904 0.94498658 -1.6987591
8.6984348 2.5150716 -1.6645643
8.6652365 0.67831218 -1.6572267
8.6394024 2.7499659 -1.6669217
6.8492913 1.5350839 -1.7069676
6.5222254 2.7422562 -1.7218451
6.9314866 0.75803673 -1.6946549
7.8450074 2.1839986 -1.6945442
7.7907119 0.99400979 -1.6688619
6.6026878 1.2401078 -1.6895314
6.6354351 2.4051003 -1.7172279
8.1326876 2.1048851 -1.6744628
7.1038079 1.1031212 -1.6850882
6.7019362 0.51888436 -1.6905913
7.313127 2.2917783 -1.7144837
8.4473066 2.4362619 -1.6779934
6.7871876 1.8495117 -1.7110717
6.873683 1.2816218 -1.6997852
7.1397142 0.82316148 -1.6845924
7.7264662 2.6028111 -1.6967555
8.6381512 0.96372837 -1.6572267
6.6919703 0.63460165 -1.6905913
8.5780716 1.8715268 -1.6755502
7.5683417 0.73119104 -1.6998004
6.5967703 1.3789307 -1.6953614
6.7855058 1.826141 -1.7090197
8.01684 0.70486331 -1.6728722
7.075953 1.385184 -1.6905432
6.5675092 1.6442344 -1.7038418
6.581461 1.6038353 -1.7049018
7.5827651 0.61254859 -1.7007476
8.6396112 0.89523655 -1.6560051
7.1749063 2.6768427 -1.7130628
8.6490145 2.6933177 -1.6653501
8.2744446 0.73305762 -1.6540767
7.9209089 1.8734109 -1.6936595
8.7046213 2.4577353 -1.6625999
7.4863038 1.1773648 -1.6936429
7.0784078 1.5362505 -1.6989737
7.9490237 1.6572115 -1.6892368
7.9739456 1.0433582 -1.6715454
7.0572624 1.5781959 -1.6959982
6.7118654 2.1385844 -1.7136369
7.2616138 2.376169 -1.7087998
7.4955463 1.4093807 -1.7054842
7.7731447 1.3916103 -1.6788023
6.9570193 0.63944799 -1.698246
7.971396 2.7183924 -1.6791347
8.2742701 0.79856265 -1.6553507
7.3991041 1.9286206 -1.7102208
7.6395631 2.1904392 -1.6905497
7.3707838 2.0703974 -1.7125891
7.7969103 2.343164 -1.6941018
6.7558842 2.7123032 -1.7083958
8.2146187 1.758178 -1.6744628
7.5694275 2.5221341 -1.6977788
7.973412 1.1198465 -1.6737567
8.5569744 1.9657352 -1.6755502
6.5388618 2.6410155 -1.7156889
8.0151281 0.67933375 -1.6719877
7.8823028 2.0218868 -1.6932173
6.8891573 1.1728336 -1.6987591
7.5338917 0.76360649 -1.6922218
6.7391043 2.0775352 -1.7156889
6.6485968 2.3627067 -1.7167149
7.9381194 1.7724339 -1.6923327
7.9822793 0.99347895 -1.6719877
8.221446 1.3054421 -1.657899
6.8596601 2.3853815 -1.7039328
7.8134713 2.308074 -1.6954287
6.5569916 0.81646091 -1.7131248
6.6208291 1.3189145 -1.6985415
7.8689179 2.058007 -1.6923327
7.6007118 2.3875074 -1.6950679
7.4864235 1.2256655 -1.6955374
7.8923936 1.9980844 -1.6941018
6.6920104 0.61340779 -1.6900613
7.7410803 1.7018914 -1.6855795
8.6092663 1.1802291 -1.6568195
8.2373466 1.0571032 -1.6536521
6.6867175 2.2586088 -1.7172279
7.2442398 2.4590187 -1.7111682
7.7360988 1.777352 -1.6882905
8.5226021 2.2133288 -1.6808436
8.653513 0.81433606 -1.6572267
6.9434342 0.66016209 -1.695168
6.567163 0.79680967 -1.7153043
6.9342136 0.91312444 -1.7002983
7.4217482 1.8476257 -1.7106946
8.2885647 0.55092573 -1.6540767
6.731143 2.7270298 -1.7039328
7.4275155 1.8243018 -1.7106946
8.5996981 1.206443 -1.6555978
7.8132033 2.2812989 -1.6936595
8.5364418 2.1027434 -1.6779934
6.6025772 2.4993548 -1.717741
6.9172611 0.9661842 -1.6977332
6.6370125 1.053247 -1.6900613
8.4235182 2.5445032 -1.6796221
8.6091356 1.3045107 -1.6604841
6.9332156 0.89082986 -1.6992722
8.0794849 2.3779678 -1.6791347
8.5977592 1.2613192 -1.6568195
6.8303976 1.6667029 -1.7100456
6.7492919 2.0574956 -1.7167149
6.637507 2.3822649 -1.7156889
8.599741 1.2340198 -1.6564124
6.9902983 1.9484122 -1.702445
7.479804 2.7429037 -1.6950679
7.9172649 1.8462738 -1.6914482
7.9662013 1.5826081 -1.689679
7.8294644 0.53941321 -1.6675066
8.5545683 1.9935063 -1.6763645
7.8866653 2.0362391 -1.6949863
8.6260929 1.0172794 -1.6560051
7.6845822 2.0344818 -1.6910015
6.5707674 1.6231399 -1.7033119
8.0419073 2.4219923 -1.6740382
6.5772748 0.77710885 -1.7174835
6.5918474 0.60085291 -1.7163938
8.2509918 0.92737001 -1.6532271
7.1649389 0.63272458 -1.6860801
8.6362219 1.5597607 -1.6747359
6.8521943 1.5131329 -1.7064545
7.9395733 1.7204294 -1.6901213
6.8901892 1.0951487 -1.6956811
8.4605637 2.4113359 -1.6792148
7.7697983 1.3658609 -1.6769948
7.8034673 0.97070175 -1.6711211
6.8963823 1.0295812 -1.6946549
6.6995759 0.57166117 -1.6911213
7.1517186 0.87004918 -1.6890554
7.5273647 1.0027698 -1.697432
7.2614851 2.4014344 -1.7106946
7.793088 2.4223914 -1.6985247
6.8357458 1.5772063 -1.7059414
7.8486209 0.51590747 -1.6715732
7.0442834 1.7269708 -1.7014532
8.2808371 0.68120301 -1.6545013
7.23353 2.4299991 -1.7064315
7.0027323 1.880954 -1.7009572
6.6783142 0.78181797 -1.6911213
6.6100354 1.2737157 -1.6932415
8.2848835 0.65533423 -1.6549261
6.7038045 2.1825266 -1.7151759
7.1765475 0.61099911 -1.6885595
7.7699118 2.4957297 -1.6985247
7.5318928 2.5360496 -1.6905497
7.137877 0.9481346 -1.6880637
8.2159786 1.2253605 -1.6540767
8.7288742 2.3172214 -1.6598495
7.1490827 0.75602973 -1.6850882
6.9076905 1.1202766 -1.7013242
7.1350527 0.92498046 -1.6865759
6.5344296 1.7784904 -1.7043718
6.6049571 1.4239451 -1.7001318
7.1697278 0.6444779 -1.6875678
7.3455486 2.2261696 -1.7173257
7.0836205 1.2486037 -1.6860801
8.5506115 2.0777845 -1.6796221
8.2159548 1.2517406 -1.6549261
6.8615484 1.4137343 -1.7033763
8.2400923 1.361446 -1.6638452
6.635035 1.2029775 -1.6964216
8.0812817 2.3509514 -1.6778609
8.6618767 0.78769749 -1.6584483
7.3110204 2.2658825 -1.7121154
6.687851 0.67663646 -1.6905913
7.7171073 1.8497385 -1.6878388
7.6475401 2.1408408 -1.6891941
7.2066507 2.6244321 -1.7159048
8.1090651 2.3038304 -1.6808336
7.1529841 2.7457457 -1.7140101
7.0836883 1.2256947 -1.6850882
6.9299011 2.1922364 -1.7054204
6.6919484 2.2369723 -1.7167149
7.9479823 1.7092054 -1.6914482
7.507719 1.0601883 -1.6945901
6.6022129 1.2937471 -1.6921813
8.6247978 1.0446178 -1.6564124
6.6754246 0.73902518 -1.6890014
8.0299301 2.5011292 -1.6765865
6.6403713 1.1394354 -1.6948316
8.0390043 0.51632178 -1.6746414
8.6761551 0.6106652 -1.6584483
7.3826275 2.1491151 -1.7206413
6.7013392 0.55060917 -1.6911213
6.5502591 1.7716995 -1.708082
6.7963004 2.5931189 -1.706908
6.6455092 0.95851189 -1.6884712
7.6575456 2.1047742 -1.6891941
6.5596728 2.6255293 -1.71928
8.0336571 0.56667531 -1.6741991
6.8719749 1.2589562 -1.698246
8.4133024 2.5847561 -1.6800294
7.1356182 0.99348533 -1.6890554
7.8247795 2.3248353 -1.698967
6.6704531 2.2764478 -1.7146628
7.0758467 1.270179 -1.6850882
7.4866614 1.5544232 -1.7102208
7.8259521 0.63806134 -1.6684102
8.6663837 0.63732386 -1.6568195
8.129818 2.1314023 -1.6753122
7.3203049 2.1682496 -1.7073789
8.0366468 0.57958621 -1.6750836
7.9698758 0.96646976 -1.6684494
7.5563421 0.75396627 -1.697432
6.814642 1.6741524 -1.7064545
7.0125356 1.8364362 -1.7004614
6.5517197 1.7060603 -1.7038418
7.4102592 1.8694861 -1.7092736
7.0331774 1.7477095 -1.6999656
8.2336426 1.5336405 -1.6689416
7.776104 1.493148 -1.6837722
6.5728331 0.71379489 -1.7142144
8.5211649 2.1558526 -1.6775862
7.8234572 0.77410853 -1.6706693
7.5710945 0.58762461 -1.697432
8.4352198 2.519161 -1.6804365
8.234251 1.4536376 -1.6659687
6.8836751 2.3212354 -1.7044287
7.759007 1.3138217 -1.6724766
8.5592909 1.9379684 -1.6747359
7.7740507 1.3414423 -1.6769948
6.9072299 1.0090548 -1.696707
8.6509123 0.8415162 -1.6572267
7.7713747 1.5175686 -1.6837722
6.773365 2.6577601 -1.7074041
6.6235805 1.1794821 -1.6921813
7.9508076 1.2827402 -1.6741991
7.7768698 1.0544043 -1.6675066
6.583796 0.53754896 -1.7125798
7.0916939 1.3651053 -1.6935186
6.8652849 2.3631964 -1.7034369
6.9386754 0.84725255 -1.6992722
7.4853597 1.4318055 -1.7040632
6.5628662 0.8906337 -1.7174835
6.5120502 1.3473045 -1.7251115
6.7868733 1.9299144 -1.7167149
6.7856102 1.8033026 -1.7074804
8.2849531 0.62916297 -1.6545013
7.4722424 1.5758969 -1.7078526
6.5412583 2.6659606 -1.7187672
6.5348487 1.0652291 -1.7169389
7.2836871 2.3076227 -1.7087998
8.0086575 0.83111852 -1.6737567
7.0640783 1.5564287 -1.6964941
7.0003014 1.9630045 -1.7059164
8.6339083 1.4474883 -1.6702567
7.4368749 1.6294661 -1.7021686
7.9591169 2.7421582 -1.6782852
7.1543794 0.77930224 -1.6870718
7.193656 2.6710298 -1.7168519
7.8151703 0.79810679 -1.6693139
7.4473233 1.6809384 -1.7073789
8.6181688 1.36138 -1.6641489
6.8928962 1.1623399 -1.6992722
7.6920772 1.9591196 -1.6882905
8.2367468 1.0307401 -1.6528027
8.667325 0.65108782 -1.6572267
6.7949772 1.7829725 -1.7085066
6.5742426 2.5835514 -1.7187672
6.6161933 1.3612517 -1.6996018
7.789165 1.4449613 -1.6846757
7.7578216 1.6800019 -1.6882905
8.2786551 0.7072131 -1.6545013
8.4567986 2.3815277 -1.6767718
6.7003679 2.1930537 -1.7151759
7.9910836 0.86732966 -1.6706607
6.6643105 0.83331734 -1.6890014
8.007863 2.5772932 -1.6770111
6.7808781 2.6116996 -1.7049246
6.6731415 0.85567564 -1.6921813
7.5913267 2.3323441 -1.6891941
7.1091542 1.0810841 -1.6855841
7.5653367 2.3504641 -1.6846757
7.79494 1.0069751 -1.6702175
6.7907219 2.6399474 -1.7098836
7.257987 2.5147653 -1.7187467
7.7122974 1.8614063 -1.6873869
8.3058605 0.52582437 -1.6574744
8.2124462 1.7307756 -1.6727641
7.2723141 2.4304554 -1.7154311
6.8772144 1.3046813 -1.7018372
8.2196436 1.1731732 -1.6532271
8.5767956 1.913663 -1.6771791
6.6469879 1.0013711 -1.6905913
8.6357622 0.94971937 -1.6564124
8.2197094 1.2787256 -1.656625
6.6726403 0.81305224 -1.6905913
7.956049 1.3349745 -1.6772951
8.236496 1.507422 -1.6685169
6.8999653 2.278542 -1.7049246
7.9497271 1.6052721 -1.6870253
7.6111832 0.51874089 -1.7059578
6.6019053 2.5228703 -1.7197931
7.9451699 1.2562029 -1.6719877
7.5219564 0.95394796 -1.6945901
7.6797037 2.749306 -1.6976402
7.1637635 2.6341987 -1.7069052
7.6949897 2.7003431 -1.697198
6.8359833 1.7480155 -1.7167149
7.6345172 2.2149642 -1.6910015
8.157239 2.0157969 -1.6748875
6.9721775 2.0262218 -1.7034369
7.1821766 0.56604105 -1.6890554
6.5667338 0.73399973 -1.7131248
6.926393 0.86780804 -1.696707
8.6237373 1.5294857 -1.6710711
7.2357912 2.5837197 -1.7192203
7.9758763 1.4805712 -1.6874676
7.0948229 1.147432 -1.6845924
6.9686017 0.59641409 -1.7002983
7.784008 1.0304675 -1.6684102
6.5467005 0.90934342 -1.7136697
8.6409149 0.99155074 -1.6584483
7.5711255 0.63552171 -1.6983794
7.5257335 2.5603228 -1.6910015
7.762743 1.541235 -1.6828686
6.8716345 1.393346 -1.7049152
7.9230256 1.8213935 -1.6914482
7.4865541 2.7187266 -1.6946161
8.2363558 1.1096002 -1.6549261
8.2527685 0.98009217 -1.6549261
7.741118 2.5402024 -1.6954287
8.5064011 2.2519517 -1.6796221
7.1784306 0.58845037 -1.6885595
7.887289 1.9704013 -1.6914482
7.3962183 1.9776145 -1.7125891
7.5114231 0.92859715 -1.6912744
7.3389735 2.111237 -1.7078526
6.6399951 1.0216752 -1.6895314
7.9743366 2.6914759 -1.6778609
8.0301199 0.73151344 -1.6764104
8.6127329 1.3327742 -1.662113
6.9982548 1.9269508 -1.7029408
7.9055076 1.8959836 -1.6914482
8.6915798 2.5871933 -1.6673144
7.0887752 1.4686958 -1.6979818
7.4766612 1.2723441 -1.6950637
6.5968924 1.4873812 -1.7017217
7.6593184 2.053632 -1.6864834
6.8816004 1.2384076 -1.6997852
6.6769037 0.76041329 -1.6900613
6.5829282 0.67309189 -1.715849
8.371666 2.7165833 -1.6800294
7.5076737 2.6598475 -1.6946161
7.8062911 2.3728044 -1.6980824
7.7380719 1.8033893 -1.6900977
6.7295995 2.1210163 -1.7167149
6.5850105 0.65240896 -1.715849
7.7497149 1.6528183 -1.6851277
6.664681 0.87590593 -1.6905913
7.7237859 2.628974 -1.6980824
8.4623518 2.3544195 -1.6763645
6.8927011 1.1400357 -1.698246
8.4024963 2.6393404 -1.6812508
6.8439679 2.4645629 -1.706908
8.1047564 2.2614384 -1.6774359
7.5521193 0.81350452 -1.6979055
8.668375 2.6100049 -1.6641716
6.511631 1.1667053 -1.7153043
6.8426151 1.6242031 -1.7105587
7.8316183 0.56427324 -1.6684102
8.7160807 2.431421 -1.6633856
6.6262078 2.4135149 -1.7156889
6.5152769 1.8615086 -1.7054318
6.5325899 2.7225008 -1.7223582
7.9974885 2.6156001 -1.6774359
6.5245581 2.6710587 -1.7151759
7.9633441 1.3619747 -1.6799488
6.7421193 2.6945624 -1.7034369
6.515501 1.188566 -1.7174835
7.1855912 0.52090323 -1.6890554
7.2893414 2.3346851 -1.7121154
7.8235645 0.84862155 -1.6724766
7.4753399 1.5030708 -1.7050105
7.5126324 1.0247974 -1.6945901
6.5921874 1.5080974 -1.7017217
7.860455 2.1351843 -1.6949863
8.4992847 2.2786624 -1.6796221
7.9596562 1.5552903 -1.6870253
7.7118039 2.6519437 -1.697198
6.7399168 2.1010265 -1.717741
6.8408809 2.4271495 -1.7029408
7.1329422 0.97030199 -1.6875678
8.145752 2.0537481 -1.6744628
7.2930508 2.3612008 -1.7149574
6.6650929 2.3450475 -1.71928
6.5370512 0.94988841 -1.7125798
8.0863171 2.283735 -1.6748875
6.8680401 1.448893 -1.7069676
8.527894 2.1290734 -1.6775862
8.6035118 1.2759943 -1.6584483
7.5534401 0.68181038 -1.6950637
8.1802711 1.8856874 -1.6731886
7.2383137 2.4824035 -1.7116418
7.5321517 0.83523899 -1.6936429
7.5237012 0.8582173 -1.6922218
8.6265707 1.5020461 -1.670664
6.5289187 1.0537069 -1.7147592
8.5463581 2.0199175 -1.6759574
6.9773078 1.9802846 -1.7014532
8.2519217 0.90123957 -1.6528027
7.8043847 2.3990524 -1.6994092
8.6196451 1.3894025 -1.6653705
7.1703916 0.54250056 -1.6855841
8.1540308 1.987877 -1.6727641
7.9467382 1.3077104 -1.6741991
8.614706 1.6538693 -1.6739213
8.6094685 1.6809274 -1.6739213
6.8608246 1.3686643 -1.7008111
6.7671962 1.9703341 -1.7146628
7.3604169 2.0424993 -1.7083262
7.0902314 1.3417604 -1.6920309
7.6833887 2.0083849 -1.6891941
8.4907207 2.2192011 -1.6747359
8.2387762 1.4277632 -1.6659687
7.0813031 1.5136054 -1.6984777
6.9256663 0.98959595 -1.7008111
7.7671094 1.2650477 -1.6724766
8.1074829 2.2074203 -1.6748875
8.004488 0.75446403 -1.6711031
8.6721706 0.58299536 -1.6572267
6.6329398 1.0419453 -1.6884712
8.6817751 0.556274 -1.6588554
6.6234517 1.1580164 -1.6911213
7.5477195 0.56187469 -1.6912744
6.7903123 1.8963321 -1.7151759
6.7676373 2.0167239 -1.7182541
6.5297089 1.0117601 -1.7131248
7.0851727 1.2947909 -1.6885595
6.601521 1.3367034 -1.6943015
6.5169373 1.125433 -1.7147592
6.6916108 2.2134838 -1.7146628
7.8258505 0.74952817 -1.6706693
7.9599199 1.633423 -1.6905636
8.2307053 1.5598559 -1.6693662
7.0886941 1.3184315 -1.6905432
6.6751618 0.79208678 -1.6905913
6.7703938 2.6811459 -1.708892
7.5647292 2.4679472 -1.6928089
7.2555466 2.539501 -1.7201676
8.2721024 0.75904721 -1.6540767
8.2729788 0.85092407 -1.6562001
6.9739127 0.53070831 -1.7002983
8.6443291 0.86829317 -1.6564124
6.8533249 1.6040421 -1.7120979
6.9639158 2.0475776 -1.7029408
7.0867805 1.4103765 -1.6945105
6.5865207 0.69439894 -1.7174835
7.0673981 1.6037338 -1.6999656
8.2907867 0.60340112 -1.6553507
8.7255049 2.3750794 -1.662207
6.5495238 0.93073928 -1.7153043
6.9540329 0.78271103 -1.7013242
7.4832082 1.0806416 -1.6893798
8.3941622 2.6657231 -1.6812508
7.6783323 1.981355 -1.6864834
6.5114765 1.1455588 -1.7142144
6.5908952 0.61120605 -1.7163938
7.9436479 1.7474881 -1.6923327
8.2359238 1.0832235 -1.6540767
7.1742711 2.7281394 -1.7173257
8.5475826 2.0486033 -1.6775862
6.5192347 1.8405156 -1.7049018
6.5701289 0.75530678 -1.7147592
7.9667082 1.3883481 -1.6817179
8.6294737 1.6286429 -1.6759574
7.5223584 1.1347522 -1.7007476
6.5245991 1.0319594 -1.7125798
7.6827946 2.7231913 -1.6963133
7.8103333 0.89689881 -1.6706693
6.8538518 1.558771 -1.7095325
6.8142753 2.5510409 -1.7074041
7.1138892 1.0361186 -1.6850882
6.9397693 2.0879838 -1.6999656
7.7171898 1.8241534 -1.6864834
7.7995539 0.87088662 -1.6675066
6.8503017 2.4062829 -1.7034369
7.1674662 0.68969226 -1.6880637
6.5973339 1.5201532 -1.7038418
7.7872972 2.4474547 -1.698967
6.5867438 2.5407879 -1.717741
7.1267052 1.0150974 -1.6875678
8.2795029 0.82530278 -1.6570497
7.7264309 1.7496486 -1.6846757
7.4099026 1.9563799 -1.7144837
7.7367988 2.5657473 -1.6963133
7.4902372 1.2021415 -1.6955374
8.2334461 1.5871642 -1.6710652
7.4563575 1.6583918 -1.7083262
8.2217236 1.1998169 -1.6545013
7.0455637 1.6804619 -1.6989737
7.0276585 1.816789 -1.7029408
8.6214733 1.0717065 -1.6564124
7.9600625 1.1306859 -1.6711031
6.5404353 0.82477283 -1.708766
8.0332298 2.52983 -1.6791347
7.658474 2.0791953 -1.6878388
6.7714972 1.9485246 -1.71415
7.9342442 1.6801274 -1.6870253
7.8343554 2.2075655 -1.6936595
8.2490044 1.4028399 -1.6672426
7.7453284 1.6264911 -1.6828686
8.0092812 0.84390736 -1.6741991
7.5986662 2.4262288 -1.697327
6.5720048 1.6892507 -1.708082
7.0383654 1.7021378 -1.6984777
7.9249067 1.7956169 -1.6905636
8.6574335 2.6661341 -1.6653501
6.8778257 1.1931194 -1.696707
7.2420435 2.5603194 -1.7187467
7.5151453 1.0492197 -1.6960111
6.6435914 1.0970762 -1.6937715
8.5915756 1.818007 -1.6759574
8.6099033 1.7091256 -1.6751431
8.425127 2.5594549 -1.6808436
6.9530487 0.73836786 -1.6997852
6.899323 1.0744121 -1.6972201
6.5906453 1.5404451 -1.7033119
7.0481949 1.6693933 -1.6989737
6.5568871 0.84785748 -1.7142144
8.654952 0.73223174 -1.6560051
8.2794075 0.78592253 -1.6562001
6.5249844 1.8200269 -1.7049018
7.9880204 1.070791 -1.6755259
6.8818574 2.3447065 -1.7059164
7.765131 1.1772814 -1.6688619
7.5239649 1.110824 -1.700274
7.5168686 2.610091 -1.6928089
7.9451971 1.2050618 -1.6702185
8.1785278 1.8582724 -1.6714898
7.4280124 1.8864545 -1.7144837
6.6166048 1.4699385 -1.7059618
7.8336186 0.6634326 -1.6706693
8.6367569 0.92237258 -1.6560051
6.6023359 1.4450949 -1.7006618
7.8624134 2.0827167 -1.6923327
8.5162449 2.1831021 -1.6779934
6.9992342 1.8564962 -1.6984777
7.9712558 1.4408453 -1.6848139
8.3708448 2.6872509 -1.6779934
8.7017918 2.5456643 -1.6669217
6.7234926 2.165653 -1.7187672
7.7730937 1.4672925 -1.681965
7.0891852 1.1579635 -1.6836004
7.8292556 2.2327063 -1.6941018
7.8165865 2.25565 -1.692775
8.0289593 0.62975335 -1.6741991
7.7083049 1.8860812 -1.6878388
6.8589635 1.4356852 -1.7038894
7.4032469 1.9048772 -1.7097472
7.8145823 0.72372776 -1.6675066
8.618557 1.6125259 -1.673107
7.8055401 0.92121142 -1.6702175
7.6508961 2.1288192 -1.6891941
8.7217846 2.4035089 -1.6629928
8.6121635 1.7377402 -1.6767718
7.7687907 1.1528822 -1.6688619
6.7079649 0.54052508 -1.6927116
7.3866482 2.1000009 -1.7182729
7.5374436 0.90786248 -1.6969584
7.0276942 1.7932831 -1.7014532
6.5397415 0.97129267 -1.7142144
7.9807534 1.0953363 -1.6746414
7.8896551 1.9446687 -1.6905636
6.5147529 1.1039683 -1.7131248
7.1436925 0.90327024 -1.6880637
6.9431987 2.1366129 -1.7044287
7.8595953 2.1084313 -1.6932173
7.3382578 2.1485572 -1.7102208
7.618166 2.2362227 -1.6887423
8.2123709 1.6635441 -1.6697911
8.0377483 2.4758914 -1.6765865
7.5217957 0.78622776 -1.6898534
6.6666918 0.91878814 -1.6927116
6.542737 1.7476801 -1.7043718
7.5817242 2.4471331 -1.6950679
6.8516784 2.4430447 -1.706908
8.007349 0.80554533 -1.6728722
6.558569 1.6639233 -1.7027817
7.5104718 2.6343298 -1.6932604
6.8243341 1.6424754 -1.7069676
7.7594671 1.2013808 -1.6684102
7.6061854 2.4154584 -1.6982307
6.57693 2.5607619 -1.7172279
8.2624884 0.87610859 -1.6545013
6.5954919 0.55942607 -1.7163938
6.5793686 0.63095152 -1.7136697
8.0380011 2.4483709 -1.6748875
7.5594149 0.65842772 -1.6960111
6.8267183 1.7685015 -1.7156889
6.8080425 2.5731132 -1.7079
6.5599113 0.86923206 -1.715849
7.9738235 1.4154503 -1.6843716
7.5055346 0.87998611 -1.6884325
6.8682375 1.4941075 -1.7095325
8.0308971 0.60452431 -1.6741991
8.6563787 2.636091 -1.6633856
7.9960704 0.8933199 -1.6724299
6.6305971 1.1163766 -1.6911213
7.3799019 2.0230076 -1.7116418
8.1666899 1.9096234 -1.6714898
7.3310943 2.2469344 -1.7154311
6.5257778 1.0847895 -1.7153043
8.114377 2.1819403 -1.6748875
7.7723742 1.1284716 -1.6688619
7.4306498 1.7016876 -1.7045369
8.6141796 1.0982817 -1.6555978
6.6638088 0.89708793 -1.6911213
7.4237242 1.773929 -1.7069052
6.9633193 0.69526321 -1.7013242
7.9692707 1.5052512 -1.6870253
7.7614303 1.2266475 -1.6697655
7.9873748 2.6401029 -1.6770111
6.963027 2.0710812 -1.7044287
6.5556612 1.729057 -1.7064919
6.6706042 2.3234556 -1.7187672
7.760179 2.5195217 -1.6980824
6.6374812 1.074693 -1.6911213
6.6757946 0.71784621 -1.6884712
7.5606432 2.4929066 -1.6937125
6.6861043 0.65526253 -1.6895314
7.5610733 0.53902906 -1.6941165
8.6479998 2.7228086 -1.6669217
7.1499701 0.80156434 -1.6865759
6.5676994 1.5787176 -1.6996018
6.6198354 1.2217588 -1.6932415
6.9443097 2.1131186 -1.7029408
6.6996689 0.59286696 -1.6916513
8.2271452 1.6396174 -1.6719146
6.8797498 1.2157533 -1.698246
7.9622574 1.1565535 -1.6724299
7.7118053 1.9126006 -1.6900977
8.215929 1.7045693 -1.6723392
7.9912877 0.91820532 -1.6719877
7.4736824 1.3565992 -1.6979055
7.7573066 1.578179 -1.6833205
6.9851828 0.5095368 -1.7028632
8.6662588 0.76066029 -1.6588554
6.9304266 0.80202943 -1.6956811
7.0571804 1.6481116 -1.6999656
6.5796986 0.51638961 -1.7109454
8.0986223 2.2323685 -1.6744628
7.3731046 1.9962152 -1.7083262
7.7250056 2.588788 -1.6954287
7.9887881 1.0198194 -1.6741991
6.9645047 0.55197394 -1.698246
6.9327483 2.1572752 -1.7034369
7.4779735 2.7023709 -1.6914532
6.5625052 2.602752 -1.717741
6.589529 1.5620164 -1.7043718
6.9355474 0.82473832 -1.6977332
7.1633358 0.71202147 -1.6875678
7.0332932 1.7711976 -1.7014532
6.6235809 2.4598556 -1.71928
7.4743857 1.5273373 -1.7059578
8.1407766 2.0253451 -1.6719146
7.2221618 2.6044416 -1.7177993
8.6695395 2.5511067 -1.6610283
8.1938601 1.807678 -1.6723392
7.843411 0.58985418 -1.6715732
6.8927736 2.3002064 -1.7049246
6.5436974 1.8030566 -1.708612
7.9033003 1.9217423 -1.6923327
8.0811071 2.323416 -1.6761615
6.9089341 2.257447 -1.7054204
8.6104965 1.765584 -1.6775862
