# .PCD v0.7 - Point Cloud Data file format
VERSION 0.7
FIELDS x y z
SIZE 4 4 4
TYPE F F F
COUNT 1 1 1
WIDTH 1430
HEIGHT 1
VIEWPOINT 0 0 0 1 0 0 0
POINTS 1430
DATA ascii
-4.6500735 -0.35682231 -1.6731511
-4.6290884 -0.58357948 -1.6252913
-4.7471061 -0.9408381 -1.6327119
-4.7005782 0.19646411 -1.21512
-4.6889334 -0.03564243 -1.1699083
-4.6362362 0.30962667 -1.4561877
-4.5075383 0.073689863 -1.3823951
-4.6720695 -0.35486138 -1.1308928
-4.7503963 -0.58693951 -1.1144257
-4.5453429 -0.24737591 -1.3524839
-4.5463185 -0.46802783 -1.3210365
-4.9764376 -0.9658221 -1.1425638
-4.6375871 -0.80442774 -1.3144288
-4.9883142 0.30602133 -1.0064862
-4.9948487 0.066121623 -0.98069584
-6.5740142 -0.48959619 -0.92474735
-7.8127704 -0.96195108 -1.0654409
-4.998548 -0.27167457 -0.93673694
-5.1835637 -0.52665925 -0.93324268
-9.072279 -0.0014104201 -0.90299511
-6.1844163 -0.4725025 -0.48203719
-6.209774 -0.66972619 -0.44291383
-6.7790022 -0.42461717 -0.77495539
-6.6793442 -0.6272046 -0.73004776
-19.151823 -2.8603637 -1.7317507
-5.983645 -0.82965875 -0.60426152
-22.471033 0.03304759 -0.95146632
-6.4747095 0.084026553 -0.35019881
-6.6532102 -0.1240626 -0.32580799
-51.673176 -3.7481132 -1.8849316
-7.6270294 -0.7199719 -0.32125622
-95.592987 -14.107799 -2.6232922
-98.185097 -18.373531 -1.9965971
-28.165457 -3.7826297 -1.6088486
-51.57193 -8.9468622 -2.8081155
-66.398621 0.19931206 1.5057839
-52.99263 -3.8349969 1.8164662
-52.998615 -5.8358617 2.1596241
-4.6155438 0.22167492 -1.739978
-4.6404195 0.00386768 -1.6973368
-5.2743511 -0.8987819 -0.92240411
-4.6715841 -0.34360024 -1.6812398
-4.6142364 -0.56689286 -1.618829
-4.7887149 -0.93324465 -1.6473573
-4.6980209 0.21113279 -1.2145594
-4.7005682 -0.02102791 -1.1731774
-4.6390071 0.32447398 -1.4575055
-4.5016098 0.087771617 -1.3804477
-4.675086 -0.34031215 -1.1314228
-4.750299 -0.5717724 -1.1139128
-4.5517845 -0.23335496 -1.3543794
-4.5458751 -0.45354405 -1.3204192
-4.9889727 -0.95195144 -1.1450434
-4.6325593 -0.78861582 -1.312036
-4.9912162 0.32196125 -1.0073899
-4.9985175 0.081855752 -0.98158038
-6.5617328 -0.46801353 -0.92250252
-6.8603106 -0.81960714 -0.91736054
-4.995472 -0.25579122 -0.93588746
-5.1851926 -0.510373 -0.93324268
-9.0801773 0.027139951 -0.90397537
-89.585999 -15.29995 1.4655744
-6.1521635 -0.45074281 -0.47823459
-6.2177801 -0.65085846 -0.44354272
-6.7210269 -0.40001804 -0.7662642
-6.6773386 -0.60584265 -0.72948754
-19.198135 -2.8055942 -1.7355517
-6.049099 -0.81909615 -0.61289716
-14.742848 -2.497072 -1.7219328
-22.466822 0.10362554 -0.95125973
-98.039673 -3.2105234 -4.2129169
-6.4823823 0.10452928 -0.35089284
-6.6575518 -0.10323586 -0.32613087
-6.8222318 -0.40094489 -0.3083674
-7.6908278 -0.70183325 -0.32556218
-99.174767 -14.317197 -2.7280555
-100.27761 -18.439753 -2.0422759
-28.157408 -3.6915426 -1.6075701
-52.444138 -8.9289656 -2.8575239
-66.043732 0.40561438 1.4988512
-48.745541 0.93201876 -0.58731258
-53.006409 -3.6686184 1.8165268
-52.577507 -5.6221375 2.143424
-4.6222034 0.23659456 -1.7430378
-4.6533709 0.01842612 -1.7025671
-5.2945704 -0.88503158 -0.9259401
-4.676352 -0.32916158 -1.6827104
-4.6104383 -0.55169624 -1.6166751
-4.7879376 -0.91750848 -1.6459625
-4.6915827 0.22558382 -1.2128776
-4.7044587 -0.0062856502 -1.1742671
-4.645494 0.33964032 -1.4601409
-4.5088778 0.10204224 -1.3830442
-4.6684337 -0.32512879 -1.1293027
-4.7539902 -0.55708009 -1.1144257
-4.5487032 -0.2188919 -1.3531157
-4.5472775 -0.43925926 -1.3204192
-4.6387815 -0.77466482 -1.3132324
-5.0057244 0.33877438 -1.0110044
-5.0040855 0.097643763 -0.9829073
-6.5592303 -0.44714215 -0.92186117
-6.8864036 -0.80087757 -0.9210093
-4.9942985 -0.24001116 -0.93546271
-5.1633902 -0.49173433 -0.92835641
-9.0562286 0.0554501 -0.90103459
-6.1951952 -0.43415755 -0.48293185
-6.2138596 -0.63069546 -0.44291383
-6.7380595 -0.37973252 -0.76858175
-6.7048454 -0.58720857 -0.73312902
-14.462018 -2.6041477 -1.1680053
-6.0398479 -0.79858124 -0.611278
-15.024459 -2.496733 -1.757952
-22.486359 0.17438017 -0.95229256
-67.032639 -1.9761208 -2.8137634
-6.5019407 0.12535624 -0.35262775
-6.6757822 -0.082613207 -0.32758385
-7.5042415 -0.66040218 -0.31236643
-99.694359 -14.072518 -2.7421179
-100.40785 -18.137819 -2.0439093
-28.111444 -3.5957792 -1.6038622
-53.291134 -8.9014139 -2.9054356
-45.896946 0.41813871 1.1042416
-45.579617 1.0130444 -0.53572106
-53.001713 -3.5010402 1.8160416
-52.580997 -5.455492 2.142911
-4.6140599 0.25067103 -1.739978
-4.6421585 0.03302731 -1.6980841
-5.2895775 -0.86716348 -0.92436856
-4.629097 -0.31149346 -1.6635917
-4.6102958 -0.53698397 -1.615957
-4.8295183 -0.90954381 -1.6606081
-4.6985178 0.24075618 -1.21512
-4.6986823 0.0085144397 -1.1726325
-4.6519327 0.35484844 -1.4627764
-4.5104256 0.11624379 -1.3836932
-4.6675076 -0.31034455 -1.1287727
-4.7442002 -0.54076684 -1.1113477
-4.5417838 -0.20430382 -1.3505883
-4.5410628 -0.42422143 -1.3179497
-4.626112 -0.75770456 -1.3084464
-4.9968638 0.35390669 -1.009197
-4.9998541 0.11329503 -0.98202264
-6.5743957 -0.42737678 -0.924106
-6.8142772 -0.77051771 -0.90945482
-5.0008864 -0.22455348 -0.93673694
-5.162961 -0.4753224 -0.92794919
-88.336571 -14.515586 1.4466938
-6.178216 -0.60731763 -0.43893099
-6.7530541 -0.35924637 -0.77060974
-6.684958 -0.56422693 -0.73004776
-19.932896 -2.7841978 -1.8083686
-14.532852 -2.5699098 -1.1739993
-6.8367853 -0.87866277 -0.72030288
-15.192704 -2.4759541 -1.7790489
-22.525642 0.2454994 -0.95435834
-67.016548 -1.7649478 -2.8127725
-6.4915562 0.14551762 -0.35176027
-6.6580691 -0.06140599 -0.32613087
-7.4486442 -0.63173497 -0.30833822
-104.56904 -18.551561 -2.1359289
-28.053276 -3.4988704 -1.5993872
-54.124672 -8.8663616 -2.9525409
-45.687466 0.55965197 1.1001682
-48.808689 1.2400723 -0.58845395
-52.98452 -3.3327804 1.8151925
-52.591908 -5.2896838 2.1426909
-4.6261587 0.26597935 -1.7453331
-4.6494527 0.047644529 -1.7010728
-5.2554603 -0.8448087 -0.91690367
-4.5223618 -0.29064912 -1.6209425
-4.6286421 -0.52448332 -1.6224194
-4.7972975 -0.88807166 -1.6473573
-4.6977386 0.25551495 -1.21512
-4.7024813 0.02327257 -1.1737221
-4.6545582 0.36978036 -1.4640943
-4.5081477 0.13036846 -1.3830442
-4.6665339 -0.29556927 -1.1282427
-4.7554765 -0.52697754 -1.1139128
-4.5480924 -0.19024071 -1.3524839
-4.5385852 -0.40959036 -1.3167148
-4.9767313 -0.90120059 -1.1395884
-4.6228118 -0.74229211 -1.3066518
-4.8365183 -1.0187222 -1.3438965
-5.0112658 0.37083274 -1.0128117
-5.0092235 0.12920189 -0.98423409
-6.1756291 -0.38356072 -0.85900557
-6.7066741 -0.73659831 -0.89242697
-4.9976606 -0.20869979 -0.93588746
-5.1819735 -0.46074951 -0.9316138
-8.0018272 0.096250243 -0.77090544
-88.691704 -14.287998 1.4510466
-6.189991 -0.58888686 -0.43997914
-6.7838025 -0.3393971 -0.77495539
-6.680779 -0.54271692 -0.72920746
-20.521324 -2.7999213 -1.8671819
-14.754634 -2.5617361 -1.1944159
-6.9004974 -0.8645876 -0.72866863
-19.521755 -3.1260149 -2.3468654
-22.562706 0.31684744 -0.95632076
-67.01976 -1.5543345 -2.8126822
-6.5030165 0.1662659 -0.35280126
-6.6701894 -0.040606331 -0.3270995
-6.8257074 -0.33663064 -0.3083674
-7.3591452 -0.60054237 -0.30194873
-104.74302 -18.243195 -2.1385326
-28.095835 -3.4145367 -1.6014328
-54.993996 -8.8318462 -3.0017192
-45.557526 0.70115077 1.0976615
-48.922485 1.3968471 -0.59037805
-53.006706 -3.1670024 1.8155564
-52.600311 -5.1236424 2.1423976
-4.6326756 0.28100166 -1.7483931
-4.6529903 0.06228124 -1.7025671
-5.2852283 -0.83243221 -0.92240411
-4.523253 -0.27643895 -1.6209425
-4.6284132 -0.50972337 -1.6217012
-4.7963719 -0.87234354 -1.6459625
-4.7084088 0.27099863 -1.2184836
-4.704309 0.038052011 -1.1742671
-4.6533732 0.38440257 -1.4640943
-4.5171714 0.14478046 -1.3862895
-4.6616626 -0.28059068 -1.1266526
-4.7436638 -0.51051271 -1.1103215
-4.5410819 -0.17570016 -1.3499565
-4.5360622 -0.39497709 -1.31548
-4.7408724 -0.84438014 -1.0775998
-4.6232343 -0.72747803 -1.3060536
-4.7779365 -0.99037647 -1.3246844
-5.0159016 0.38705555 -1.0141672
-5.0029435 0.14480066 -0.9829073
-6.1156979 -0.36081088 -0.84906417
-6.1882892 -0.65796292 -0.81184936
-5.0041513 -0.19319253 -0.93716156
-5.1931467 -0.44535142 -0.93364978
-8.0014858 0.1213867 -0.77090544
-88.339134 -13.946516 1.4454739
-6.1858702 -0.56886739 -0.43935025
-8.0205078 -0.37127572 -0.95602274
-6.6291623 -0.51735878 -0.7216444
-21.098204 -2.8104217 -1.9247953
-14.958842 -2.5491595 -1.2131467
-7.0566816 -0.8610673 -0.74971801
-19.580456 -3.0724244 -2.3532975
-22.597546 0.38838354 -0.95817995
-67.008339 -1.3434641 -2.8119617
-6.510428 0.18695423 -0.35349524
-6.6563301 -0.01955688 -0.32596946
-7.3371334 -0.57546508 -0.30028188
-89.383873 -15.275047 -1.7933149
-28.175806 -3.3344061 -1.6059079
-55.901093 -8.7978973 -3.0530858
-34.637184 0.63569009 0.88376927
-45.737934 1.4480418 -0.53849298
-53.004421 -2.9998002 1.8151925
-52.588291 -4.9557395 2.1413715
-4.6299267 0.29542536 -1.7476281
-4.6787434 0.077181913 -1.713028
-5.2839389 -0.81524587 -0.9216184
-4.5240989 -0.26222828 -1.6209425
-4.6615257 -0.49873203 -1.6339073
-4.7270565 -0.84480077 -1.6187638
-4.7151966 0.28629592 -1.220726
-4.7060909 0.0528409 -1.174812
-4.6596651 0.39970621 -1.4667298
-4.522367 0.15913697 -1.3882368
-4.6586695 -0.26574701 -1.1255927
-4.7375574 -0.49476323 -1.1082695
-4.5510945 -0.16171671 -1.3531157
-4.5372801 -0.38072556 -1.31548
-4.8753161 -0.85180026 -1.1118175
-4.6311603 -0.71379173 -1.3078482
-4.7679152 -0.972615 -1.3206091
-5.0204844 0.40330869 -1.0155226
-5.0122128 0.16077833 -0.98511875
-6.6136184 -0.36722779 -0.92987835
-6.1411891 -0.63324386 -0.80424774
-5.004734 -0.17747153 -0.93716156
-5.2374339 -0.43279544 -0.942608
-6.1737638 -0.54814124 -0.43788284
-8.0414066 -0.3468653 -0.95891976
-6.6366763 -0.49699652 -0.72248471
-21.720741 -2.8231645 -1.9870094
-15.280918 -2.5552237 -1.243116
-6.9491043 -0.82620102 -0.73460561
-19.454769 -2.9899273 -2.3355451
-22.676088 0.46109077 -0.96231151
-67.000237 -1.1327344 -2.8114209
-6.5356941 0.20833488 -0.35575068
-6.678287 0.0012738 -0.32774526
-6.8197179 -0.29342556 -0.30775926
-7.3389053 -0.55241162 -0.30028188
-89.500435 -15.005751 -1.7948594
-28.160358 -3.2429259 -1.6042458
-56.867718 -8.767477 -3.1079078
-34.838924 0.74904078 0.88776428
-40.09343 1.3922297 -0.44646305
-52.997608 -2.8324187 1.8147073
-52.607578 -4.7908659 2.1415181
-4.6437201 0.31103984 -1.7537484
-4.6933179 0.092089407 -1.7190056
-5.2651291 -0.79552317 -0.91729671
-4.5211849 -0.24783161 -1.6194718
-4.6537914 -0.48306945 -1.6303172
-4.6391354 -0.81456119 -1.5845907
-4.7155232 0.067710578 -1.1775361
-4.6640267 0.41487643 -1.4687064
-4.5218439 0.17334381 -1.3882368
-4.6652598 -0.251389 -1.1271826
-4.7448549 -0.48049289 -1.1098087
-4.5496836 -0.14736745 -1.3524839
-4.5346642 -0.36614132 -1.3142453
-4.9009042 -0.84028876 -1.1177684
-4.6239367 -0.69786721 -1.304857
-4.7728214 -0.95801753 -1.3211912
-5.017251 0.41890705 -1.0150708
-5.0136323 0.17658262 -0.98556101
-6.6758657 -0.34940937 -0.93981993
-6.1510124 -0.61476678 -0.80546403
-4.991591 -0.16137674 -0.9341886
-5.1919398 -0.41238439 -0.93283534
-6.1913037 -0.53016824 -0.43955988
-8.0483894 -0.32182032 -0.95978892
-6.650053 -0.47704199 -0.72416538
-6.2852526 -0.81548363 -0.42224979
-19.166637 -3.1498032 -1.6128625
-22.702484 0.53301156 -0.96375751
-66.98748 -0.92202812 -2.8107004
-6.5051427 0.22770031 -0.35314822
-6.650342 0.022268649 -0.32548511
-98.592361 -4.9513922 -3.7813623
-6.8265843 -0.27221626 -0.30821541
-7.324688 -0.52815014 -0.29917067
-90.036423 -14.80512 -1.8058047
-28.154539 -3.1526854 -1.6032228
-66.789963 1.6697742 1.5138524
-41.718655 -0.56084239 1.2710725
-40.024918 1.5157093 -0.44541949
-52.986279 -2.6649239 1.8141009
-52.614407 -4.6248765 2.1412249
-4.6371922 0.32520729 -1.7514533
-4.6521969 0.10612969 -1.7025671
-5.2889566 -0.78203076 -0.9216184
-4.5145097 -0.23328637 -1.6165305
-4.6608543 -0.46903929 -1.6324713
-4.660162 -0.80306554 -1.5915649
-4.7095141 0.082454383 -1.1759015
-4.6739764 0.430628 -1.4726597
-4.5288401 0.1878181 -1.3908333
-4.6621737 -0.2365583 -1.1261226
-4.7540321 -0.46638182 -1.1118605
-4.5349469 -0.13271722 -1.347429
-4.5320001 -0.35157833 -1.3130103
-4.9092569 -0.82582319 -1.1192561
-4.6242166 -0.68306977 -1.3042588
-4.7589312 -0.93959355 -1.3159515
-5.0275521 0.43573558 -1.0177817
-5.0266991 0.19278434 -0.988657
-6.6434045 -0.32691768 -0.93436801
-6.5049596 -0.63100505 -0.85989189
-5.0037966 -0.14597641 -0.93673694
-5.2049198 -0.39702436 -0.93527842
-6.1960917 -0.52078974 -0.43997914
-8.0567951 -0.30945277 -0.96094775
-6.7455893 -0.47361499 -0.73761094
-6.237155 -0.79948622 -0.41724867
-19.177454 -3.1206524 -1.6134245
-8.4814501 -0.96212375 -0.94401979
-48.63406 1.2480041 -2.3052547
-66.988846 -0.81677759 -2.8107004
-6.566493 0.24042496 -0.35852665
-6.6941547 0.03276176 -0.32903683
-7.2877049 -0.51384044 -0.29653156
-90.112862 -14.672331 -1.8069966
-28.191202 -3.1119199 -1.6052686
-28.580154 -4.2554178 -1.4556524
-34.057438 0.89224857 0.87252825
-41.633514 -0.49421987 1.2688752
-39.984528 1.5770713 -0.4447999
-52.980415 -2.581188 1.8137975
-52.635548 -4.5434146 2.1417379
-4.6458879 0.33320519 -1.7552786
-4.71138 0.11455457 -1.7264773
-5.2921209 -0.77399427 -0.9220112
-4.5241609 -0.22660485 -1.6202071
-4.6634421 -0.46191001 -1.6331894
-4.6558685 -0.79482663 -1.5894725
-4.7491794 0.32601774 -1.2313775
-4.7151518 0.089932039 -1.1775361
-4.68081 0.43871745 -1.4752952
-4.53232 0.1950745 -1.3921312
-4.6567597 -0.22898099 -1.1245326
-4.7278357 -0.45616531 -1.1046782
-4.54843 -0.12588345 -1.3518519
-4.5268588 -0.34399235 -1.3111583
-4.893332 -0.81533301 -1.1147928
-4.6309538 -0.67659968 -1.3060536
-4.7510228 -0.93022656 -1.3130406
-5.0307403 0.44399676 -1.0186855
-5.0185924 0.20041098 -0.98688781
-6.6379938 -0.31622064 -0.93340611
-6.6298676 -0.63310617 -0.87904811
-4.9962039 -0.13793927 -0.93503797
-5.1879697 -0.38744572 -0.9316138
-6.1818423 -0.49997357 -0.4383021
-8.0597057 -0.28420505 -0.96123743
-6.7430921 -0.45214182 -0.73705059
-19.354267 -3.0872757 -1.6293457
-8.2263041 -0.90781051 -0.90866768
-45.583282 1.3113899 -2.1476381
-66.997078 -0.60639197 -2.8109708
-6.5457997 0.26018137 -0.35679168
-6.678071 0.053724378 -0.32774526
-6.831778 -0.24016748 -0.30851945
-7.281322 -0.4903796 -0.29597592
-28.188932 -3.0220797 -1.6045015
-29.357922 -4.2776999 -1.5002239
-35.01585 1.0281754 0.89136773
-41.586884 -0.36298159 1.2676491
-40.059284 1.7061262 -0.44610435
-52.998249 -2.4151931 1.8141009
-52.814869 -4.3918715 2.1478219
-4.6392918 0.34735322 -1.7529832
-4.6887398 0.12886603 -1.7175109
-5.2945256 -0.75736582 -0.9220112
-4.5304251 -0.2126212 -1.622413
-4.6741557 -0.44820032 -1.6367795
-4.6453896 -0.77810073 -1.5845907
-4.7672729 0.34241471 -1.2369834
-4.7167697 0.10477587 -1.1780809
-4.6850448 0.45399714 -1.4772718
-4.5279045 0.20915842 -1.3908333
-4.6613097 -0.21450698 -1.1255927
-4.7311687 -0.44150111 -1.1051912
-4.5488029 -0.11159442 -1.3518519
-4.5279169 -0.32977 -1.3111583
-4.8958697 -0.79995704 -1.1147928
-4.6179304 -0.65997291 -1.3012676
-4.7389059 -0.9123224 -1.308383
-6.8790927 0.48247984 -1.082932
-5.0351386 0.46036011 -1.0200409
-5.019887 0.21624924 -0.98733008
-6.6547337 -0.29600671 -0.93597162
-6.6495323 -0.61398071 -0.88178468
-4.9985666 -0.12228118 -0.93546271
-5.1833048 -0.37069806 -0.93039238
-6.1853652 -0.48071244 -0.43851173
-8.0111084 -0.25745425 -0.95399487
-6.730649 -0.43001816 -0.73508984
-6.2578654 -0.76214188 -0.41884899
-19.296997 -3.0159135 -1.6229771
-8.1837797 -0.87724715 -0.90246069
-45.624847 1.4560808 -2.1500137
-67.000648 -0.3959209 -2.8110609
-6.5509205 0.28102455 -0.3573122
-6.6938171 0.074820533 -0.32903683
-66.723389 -5.4027777 -2.0976422
-6.7946248 -0.21763518 -0.30563065
-7.2748647 -0.46696228 -0.29542029
-39.918797 1.3013176 0.98752326
-31.232389 1.4227685 -0.30209148
-74.046394 0.55927813 -0.48265612
-52.975613 -2.2474236 1.8131909
-52.912083 -4.2326593 2.1509008
-4.6363368 0.36177254 -1.7522182
-4.6864576 0.14354923 -1.7167637
-5.312427 -0.74282587 -0.92515439
-4.529212 -0.19831648 -1.6216778
-4.6662526 -0.43260047 -1.6331894
-4.6459603 -0.7632091 -1.5838934
-4.7393832 0.35523462 -1.229135
-4.7106457 0.11947923 -1.1764466
-4.689229 0.46930888 -1.4792484
-4.5328946 0.22362961 -1.3927803
-4.6600337 -0.19978993 -1.1250627
-4.7344575 -0.42681947 -1.1057043
-4.5396452 -0.097154483 -1.3486928
-4.5346217 -0.31597251 -1.3130103
-4.8830409 -0.78220093 -1.1108257
-4.6048498 -0.64343363 -1.2964818
-4.736115 -0.89633226 -1.3066366
-6.9047956 0.15989459 -1.0385586
-5.0491772 0.47772413 -1.0236554
-5.0308762 0.23249876 -0.9899838
-6.6556311 -0.27509847 -0.93597162
-6.6356831 -0.59162134 -0.87935221
-5.0067425 -0.10670288 -0.93716156
-5.1903019 -0.35484207 -0.9316138
-99.724228 -13.985798 1.6016753
-6.1828794 -0.46096548 -0.43809253
-8.0316582 -0.23279428 -0.95689178
-6.73592 -0.40912613 -0.73565012
-6.2325501 -0.7393111 -0.41604841
-19.355576 -2.9628725 -1.6276599
-8.0938253 -0.84218884 -0.88977718
-66.989586 -0.18538928 -2.8105202
-6.5559754 0.30190235 -0.35783267
-6.7194624 0.096120127 -0.33113557
-105.41217 -4.1306767 -4.0553279
-6.8271718 -0.19708715 -0.3080633
-7.2902331 -0.44500554 -0.29639262
-29.352587 -4.088717 -1.4983811
-66.73201 -0.17886318 1.9102311
-73.878296 0.79018527 -0.48110956
-52.980415 -2.0809047 1.8131304
-52.980911 -4.0707221 2.1529534
-4.6425409 0.37697577 -1.7552786
-4.6878376 0.158324 -1.7175109
-5.2952924 -0.72357213 -0.92122549
-4.531672 -0.18415123 -1.622413
-4.6564388 -0.4168779 -1.6288815
-4.6316652 -0.74601918 -1.5776168
-4.8342752 -1.0233687 -1.6172342
-4.8224225 0.37716129 -1.2538015
-4.7217898 0.13454309 -1.1797155
-4.704627 0.48587722 -1.4851784
-4.5435081 0.23839918 -1.3966748
-4.6567836 -0.18501717 -1.1240026
-4.73 -0.41140926 -1.1041653
-4.54562 -0.082963422 -1.3505883
-4.5298996 -0.30131349 -1.3111583
-4.8720646 -0.76482368 -1.1073543
-4.6276631 -0.63168705 -1.3030624
-4.7201152 -0.87784827 -1.3008145
-6.8288245 0.52191359 -1.0745004
-6.8983469 0.1814529 -1.0375435
-5.0592794 0.49478176 -1.0263665
-5.0281725 0.24821669 -0.98954153
-6.6702733 -0.25466096 -0.93821645
-6.627665 -0.56988627 -0.87783182
-5.0031457 -0.090922274 -0.9363122
-5.1992049 -0.33908305 -0.93324268
-99.878616 -13.687664 1.6032279
-6.1842961 -0.44153881 -0.43809253
-8.0481768 -0.20791835 -0.95920944
-6.7233348 -0.38711199 -0.73368919
-6.2407761 -0.7203871 -0.41664851
-19.372662 -2.9032402 -1.6284091
-8.0490942 -0.81213439 -0.88330042
-40.226059 1.5337723 -1.8711377
-68.724068 0.02504403 -2.8887165
-6.568922 0.32323787 -0.35904717
-6.6991944 0.1169591 -0.32952118
-105.46058 -3.800776 -4.0567822
-69.014328 -5.1528993 -2.1756823
-7.2378263 -0.41879544 -0.29264224
-29.090315 -3.9588137 -1.4823722
-33.456108 1.2969154 0.86101305
-67.208099 0.03081936 1.922392
-31.154936 1.6154039 -0.30098271
-66.05249 0.91678059 -0.40821671
-52.978699 -1.9141647 1.8128878
-52.967529 -3.9023337 2.1520007
-4.6450148 0.39189035 -1.7568085
-4.6910257 0.17316703 -1.7190056
-5.2975392 -0.70693254 -0.92122549
-4.5247922 -0.16967736 -1.6194718
-4.6614432 -0.40258893 -1.6303172
-4.633986 -0.73146451 -1.5776168
-4.7270913 -0.98456657 -1.5764904
-4.9130197 0.40027717 -1.2807103
-4.7309628 0.14962792 -1.1824398
-4.6993241 0.5002346 -1.4838605
-4.5370684 0.25238925 -1.3947276
-4.6631246 -0.17056561 -1.1255927
-4.725493 -0.39603129 -1.1026261
-4.5515504 -0.068735778 -1.3524839
-4.8763599 -0.749798 -1.1078502
-4.6845236 -0.62415296 -1.3204112
-4.7228498 -0.86301506 -1.3008145
-6.8369603 0.5441829 -1.076257
-6.9075952 0.20337705 -1.0392354
-5.0635123 0.51129067 -1.0277219
-5.035161 0.26438102 -0.99131072
-7.7799592 -0.26822844 -1.118445
-6.590035 -0.54564464 -0.87175047
-4.9975429 -0.075146109 -0.93503797
-5.1787529 -0.32130581 -0.92876351
-6.1816854 -0.42182183 -0.43767327
-8.0448351 -0.18255779 -0.95863008
-6.2271805 -0.69906843 -0.41504818
-19.442749 -2.8514061 -1.6342157
-6.9487414 -0.68264449 -0.73244667
-40.089333 1.6546092 -1.8643209
-6.5758309 0.34432003 -0.35974115
-6.7346711 0.13860321 -0.33242708
-67.219643 -2.2206006 -2.5094538
-69.351151 -4.9591455 -2.1867719
-7.2510571 -0.39675331 -0.29347569
-29.814463 -2.8164039 -1.7067869
-29.336134 -3.8986537 -1.4959625
-33.673622 1.4114742 0.86536062
-65.948082 0.2378995 1.8902016
-31.139729 1.7127085 -0.30081964
-46.260883 0.79523093 -0.22382309
-52.970467 -1.7472736 1.8124632
-52.981522 -3.736064 2.1520739
-4.6437612 0.40648025 -1.7568085
-4.6960211 0.18809453 -1.721247
-5.2861128 -0.68858063 -0.91847521
-4.5308805 -0.1556219 -1.6216778
-4.6626844 -0.38794348 -1.6303172
-4.6418223 -0.71773207 -1.5797089
-4.7412062 -0.97203827 -1.5805649
-4.8199573 0.40745312 -1.2538015
-4.7285461 0.1644327 -1.181895
-4.7071095 0.51607519 -1.487155
-4.5456986 0.26714173 -1.3979728
-4.6578541 -0.15575494 -1.1240026
-4.7344174 -0.38184851 -1.1046782
-4.5555387 -0.054460909 -1.3537475
-4.4728594 -0.26896489 -1.2920189
-4.8786912 -0.73447567 -1.1078502
-4.6788869 -0.60849118 -1.3180182
-4.7330637 -0.84956735 -1.3031434
-6.8734264 0.22411014 -1.0334834
-5.0715647 0.52825326 -1.029981
-5.0323577 0.28009886 -0.99086845
-7.8024702 -0.2443947 -1.1219726
-6.4420056 -0.51242501 -0.8486414
-4.9997082 -0.05945953 -0.93546271
-5.1836443 -0.30528551 -0.92957783
-8.0195961 0.099206559 -0.72776103
-6.2186961 -0.40487567 -0.44144648
-8.0453682 -0.15728486 -0.95863008
-8.0425053 -0.41748554 -0.92024499
-6.2154913 -0.67804986 -0.41364783
-19.561966 -2.8062944 -1.6447049
-6.9488797 -0.66063225 -0.73217684
-40.151779 1.7835951 -1.8678324
-6.592618 0.36604029 -0.36130261
-6.6923485 0.1589275 -0.32903683
-68.788322 -2.0555117 -2.572633
-70.724373 -4.8345919 -2.2336786
-6.816762 -0.13255006 -0.30715111
-7.2184014 -0.37210497 -0.29111433
-99.659561 -14.306815 -2.0140741
-30.936329 -2.8233843 -1.7783867
-30.350052 -3.9373085 -1.5542394
-33.966652 1.5308921 0.87119657
-65.329216 0.44114172 1.8744129
-31.226019 1.8159392 -0.30231977
-45.73428 0.9301936 -0.2189412
-52.981693 -1.5810397 1.8126452
-52.989006 -3.569339 2.1519272
-4.6718912 0.42390105 -1.769049
-4.7009683 0.20305511 -1.7234886
-5.2707314 -0.66983217 -0.91493934
-4.5350661 -0.14148253 -1.6231486
-4.6285429 -0.37026811 -1.6166751
-4.7442365 -0.95713943 -1.5805649
-4.897027 0.42989057 -1.2767861
-4.729929 0.17934847 -1.1824398
-4.7185922 0.53241348 -1.491767
-4.5467262 0.28152639 -1.398622
-4.6641045 -0.14126492 -1.1255927
-4.7298145 -0.3664943 -1.1031394
-4.5556874 -0.04014989 -1.3537475
-4.5173502 -0.25765502 -1.3062192
-4.8598733 -0.71615076 -1.1023952
-4.6106768 -0.58528972 -1.2958837
-4.7206492 -0.83195639 -1.298486
-6.8805695 0.24595317 -1.0348369
-5.0776253 0.54505372 -1.0317883
-5.0450869 0.29663739 -0.99396443
-7.8110943 -0.220079 -1.1232554
-6.1677299 -0.46999812 -0.80607212
-4.9998708 -0.043753169 -0.93546271
-5.1748061 -0.28840628 -0.92754197
-8.0132847 0.12432948 -0.72705936
-6.1802444 -0.38270995 -0.43725401
-8.0398865 -0.13192838 -0.95776105
-8.0556431 -0.39283189 -0.92192572
-6.209672 -0.65771282 -0.41284764
-20.193693 -2.8330333 -1.7038944
-6.9390759 -0.63775235 -0.73055768
-31.312056 1.4837821 -1.4104756
-6.6093321 0.38787246 -0.36286408
-6.7097526 0.18036585 -0.33048981
-72.143372 -4.704432 -2.2821696
-6.8370852 -0.11138102 -0.3086715
-7.2514148 -0.35108173 -0.29333675
-67.0867 -6.8048263 -1.7675495
-100.16141 -14.057942 -2.0242693
-36.174423 -3.1824551 -2.1146502
-30.38604 -3.8449612 -1.5556215
-34.245281 1.6514958 0.87675828
-66.511078 0.65763515 1.9046618
-34.541309 2.1204221 -0.35658544
-46.510891 1.0917474 -0.22620811
-40.316574 -1.0825448 1.4281157
-52.995968 -3.4025784 2.1517806
-4.6999574 0.44150475 -1.7812896
-4.6762104 0.21684065 -1.713775
-5.2338629 -0.648637 -0.90708154
-4.5299087 -0.12710872 -1.6209425
-4.5720124 -0.35096782 -1.5944169
-4.5905695 -0.68061674 -1.5587867
-4.7564359 -0.94410968 -1.5839602
-4.9204946 0.44766629 -1.2840738
-4.7312651 0.19427682 -1.1829846
-4.7150211 0.54700816 -1.4911083
-4.5514846 0.29614642 -1.4005693
-4.6587405 -0.12648545 -1.1240026
-4.7232342 -0.35101655 -1.1010871
-4.5500984 -0.025836511 -1.3518519
-4.5238333 -0.24380061 -1.3080713
-4.8582611 -0.70034552 -1.1014034
-5.0868025 -0.9811002 -1.1091479
-4.4836144 -0.55558336 -1.2552035
-4.7006364 -0.81308371 -1.2914996
-6.8837028 0.26770815 -1.0355135
-5.0816936 0.56167591 -1.0331439
-5.0499716 0.31281865 -0.99529135
-7.8038521 -0.19536513 -1.1219726
-6.1711464 -0.45076981 -0.8063761
-4.9999838 -0.028044 -0.93546271
-5.1365886 -0.26989374 -0.91939819
-8.0088844 0.1494406 -0.72659171
-6.1834016 -0.36341849 -0.43746364
-8.044219 -0.1067109 -0.95834041
-8.058815 -0.36762056 -0.92220587
-6.1998253 -0.63703161 -0.41164738
-20.565418 -2.8198082 -1.7383591
-6.8324428 -0.60672164 -0.71571517
-31.349133 1.58429 -1.4126447
-6.6219983 0.40954858 -0.36407858
-6.7191162 0.2017035 -0.33129698
-6.8453779 -0.089976966 -0.30927971
-7.232554 -0.3273268 -0.29194772
-99.902 -13.701579 -2.0175169
-36.30954 -3.0793371 -2.1227052
-30.792276 -3.7984643 -1.5785407
-31.080822 1.5943657 0.81479573
-65.724998 0.85666561 1.8846321
-46.705151 1.2430087 -0.22805278
-52.950611 -1.2471898 1.8114321
-52.968498 -3.2337472 2.1503878
-4.7794299 0.46457124 -1.8149508
-4.6532655 0.23055188 -1.7048088
-5.2183428 -0.63016295 -0.90354568
-5.4527321 -0.91249537 -0.88607663
-4.5247078 -0.11277086 -1.6187365
-4.5582061 -0.33542296 -1.5886729
-4.5666938 -0.66257107 -1.5490232
-4.7538457 -0.92805201 -1.5819229
-4.9515419 0.46635154 -1.2936041
-4.7306314 0.20913863 -1.1829846
-4.7282701 0.5636875 -1.4963793
-4.5543075 0.31067896 -1.4018673
-4.6668277 -0.11199196 -1.1261226
-4.7378063 -0.33721179 -1.1046782
-4.5596452 -0.01151254 -1.3550112
-4.3422451 -0.21928686 -1.2488012
-4.8565974 -0.68455976 -1.1004117
-5.0345497 -0.95434022 -1.0954119
-4.6104708 -0.5558725 -1.294687
-4.7238989 -0.80194837 -1.2979037
-6.8729792 0.28895456 -1.0338218
-5.1011853 0.5801664 -1.038114
-5.0470171 0.32856438 -0.99484897
-7.8123226 -0.17099568 -1.1232554
-6.3124976 -0.44175461 -0.8279649
-5.009819 -0.01231021 -0.93758631
-5.1393666 -0.25386283 -0.91980529
-8.6122379 0.44419664 -0.84761059
-7.9825573 0.17412183 -0.72355145
-6.1686287 -0.34304032 -0.4357866
-8.0385771 -0.081397481 -0.95747125
-8.0757561 -0.3430241 -0.92444676
-6.2097206 -0.61830664 -0.41244757
-21.156286 -2.8338809 -1.793615
-6.7632108 -0.57943612 -0.70600009
-31.282171 1.6793994 -1.4094428
-6.6326056 0.43117267 -0.36511952
-6.7304049 0.22316174 -0.33226568
-67.927536 -1.3894993 -2.5371654
-7.1956778 -0.30287224 -0.28930861
-30.794149 -3.7005079 -1.5779649
-31.107601 1.6937685 0.81542242
-38.082447 0.62697291 1.1781801
-70.356689 4.7899976 -0.94225729
-46.709015 1.3899665 -0.22812735
-39.577072 -0.81436396 1.4054928
-52.990364 -3.0680227 2.1508276
-4.6395459 0.2445586 -1.6995785
-5.2144504 -0.61310762 -0.90236694
-5.4613876 -0.89634299 -0.88718003
-4.5361977 -0.098734207 -1.6231486
-4.5108438 -0.31741601 -1.5700045
-4.5910406 -0.65125495 -1.5573919
-4.7327456 -0.90837336 -1.573095
-4.9366837 0.48053312 -1.28968
-4.7414875 0.22448242 -1.1862538
-4.7433333 0.58069611 -1.5023091
-4.5589719 0.32535717 -1.4038147
-4.6633 -0.09727098 -1.1250627
-4.7253466 -0.3213335 -1.1010871
-4.5577612 0.00280027 -1.3543794
-4.4056001 -0.2089882 -1.2691753
-4.8548822 -0.66879022 -1.0994197
-5.0337062 -0.93778765 -1.0944645
-4.6027112 -0.54032588 -1.2916958
-4.7150803 -0.78515631 -1.2944105
-5.6461258 0.53424692 -0.86441278
-6.8799148 0.31087166 -1.0351752
-5.1225452 0.59902209 -1.0435358
-5.0556931 0.34503275 -0.99706042
-7.79703 -0.14620787 -1.1206899
-6.6589184 -0.44640413 -0.88117659
-5.013741 0.00345184 -0.93843579
-5.1303616 -0.23721382 -0.91776943
-6.1895342 -0.32478464 -0.43788284
-7.9200602 -0.055697579 -0.94008875
-8.0570097 -0.31680951 -0.9216457
-6.2037053 -0.59806401 -0.41164738
-21.854042 -2.8583381 -1.8589855
-6.7235098 -0.5549224 -0.70033294
-31.133173 1.7693884 -1.4020061
-52.594616 1.0167657 -2.1618879
-6.7495952 0.24495141 -0.33388007
-7.246428 -0.2823855 -0.29278111
-102.34934 -13.383221 -2.0701246
-30.835365 -3.6072505 -1.5796924
-40.059132 2.3149147 0.99116582
-34.470116 0.67829436 1.0859009
-70.512825 5.0232921 -0.9450618
-34.99905 1.1580837 -0.11901163
-52.983383 -0.91489977 1.8122206
-52.981777 -2.9005392 2.1501679
-4.7202792 0.26322982 -1.7324547
-5.2183003 -0.59693599 -0.90275997
-5.4486613 -0.87660956 -0.88423747
-4.5309057 -0.084410727 -1.6209425
-4.5192657 -0.30378658 -1.5728765
-4.6004963 -0.63781649 -1.5601816
-4.7097225 -0.8884778 -1.5635881
-4.9676051 0.49947411 -1.2992102
-4.742681 0.23946384 -1.1867986
-4.7527199 0.59706843 -1.5062624
-4.5635891 0.34006777 -1.4057618
-4.6655107 -0.082643539 -1.1255927
-4.7224765 -0.30621529 -1.1000612
-4.559628 0.017137021 -1.3550112
-4.5164313 -0.20067789 -1.3049843
-4.8454304 -0.65204555 -1.0964442
-5.0366273 -0.92196894 -1.0944645
-4.5986943 -0.52524555 -1.2899013
-4.8005371 -0.78435886 -1.3200268
-5.6052475 0.54797018 -0.85738647
-6.8651204 0.3318702 -1.0328068
-5.1419024 0.6177755 -1.0485059
-5.0682077 0.36181676 -1.0001564
-7.8033733 -0.12178443 -1.1216519
-6.6583161 -0.42534837 -0.88087261
-5.0117517 0.019185539 -0.93801093
-5.1193457 -0.22052975 -0.91532624
-7.9832006 0.46016932 -0.77017027
-6.1726494 -0.30438092 -0.43599629
-7.9221754 -0.030816549 -0.94037843
-8.0223475 -0.29009226 -0.91660351
-6.2015901 -0.57821846 -0.41124731
-6.4389729 -0.80310673 -0.39610797
-6.6679139 -0.5294705 -0.69250691
-31.348757 1.8806486 -1.413471
-52.491295 1.1797988 -2.1573837
-20.269444 1.4992695 -1.556174
-6.778676 0.26721835 -0.33630168
-7.2373114 -0.25922561 -0.29208666
-29.229843 -3.3250055 -1.4858273
-34.790638 2.1167252 0.88792098
-34.561768 0.78865671 1.0883025
-72.397141 5.3868852 -0.97614074
-34.81736 1.2617191 -0.11735328
-52.980656 -2.7335556 2.1498015
-4.7249875 0.27835473 -1.7346965
-5.181149 -0.57639694 -0.89490217
-5.4319839 -0.85633445 -0.88055927
-4.5274291 -0.070139587 -1.6194718
-4.5164733 -0.28932709 -1.5714405
-4.5987597 -0.62287796 -1.5587867
-4.6570573 -0.86308873 -1.5432162
-4.9831882 0.51695007 -1.3042555
-4.7438278 0.254455 -1.1873435
-4.7601786 0.61325377 -1.5095568
-4.5700459 0.3549464 -1.4083582
-4.6657476 -0.067985788 -1.1255927
-4.721487 -0.29124784 -1.0995481
-4.5595512 0.031461641 -1.3550112
-4.5265398 -0.18693486 -1.3080713
-4.8512993 -0.63730407 -1.0974362
-5.0146604 -0.90154469 -1.0883069
-4.5889344 -0.50959581 -1.2863119
-4.8898106 -0.78365761 -1.3468075
-5.5780439 0.56288916 -0.85281932
-6.860106 0.35324842 -1.03213
-5.1611929 0.63665652 -1.053476
-5.0689921 0.37787253 -1.0005987
-7.791873 -0.097160302 -1.1197277
-6.649756 -0.40379062 -0.87935221
-5.0233917 0.03507312 -0.94055927
-5.1317506 -0.20497386 -0.91776943
-7.8450346 0.47648981 -0.75326079
-7.0136228 0.22228631 -0.60966057
-6.1696019 -0.28478849 -0.43557703
-7.9202538 -0.0059347101 -0.94008875
-8.0449867 -0.26567867 -0.91968471
-6.1954451 -0.55805302 -0.41044712
-6.3802171 -0.77518249 -0.39030135
-6.7130284 -0.51166677 -0.69844389
-8.5121565 -0.92605597 -0.89297742
-31.31279 1.9772054 -1.4119216
-48.678402 1.2489942 -1.9855862
-20.141476 1.5532795 -1.5454173
-6.7718267 0.2882801 -0.3358174
-67.150314 -0.74087 -2.5053337
-6.8758802 -0.0038545399 -0.3115603
-7.2061877 -0.23533204 -0.28986418
-43.693535 -3.1478324 -2.5946245
-29.256018 -3.234936 -1.4867488
-34.42065 2.202493 0.88079256
-34.425198 0.89384907 1.0848789
-68.534035 5.3145919 -0.91323292
-39.927177 1.5686746 -0.1650355
-52.978996 -2.5666199 2.1494348
-4.7296457 0.29351065 -1.736938
-5.1848845 -0.56031907 -0.89529508
-5.4307637 -0.83864778 -0.87982374
-4.527627 -0.055916779 -1.6194718
-4.5154972 -0.27501348 -1.5707226
-4.5783782 -0.60560423 -1.550418
-4.6874785 -0.85366195 -1.5534023
-4.9548292 0.52960575 -1.2964071
-4.7487702 0.26965177 -1.1889781
-4.769453 0.62974828 -1.51351
-4.5745668 0.36972612 -1.4103054
-4.6736522 -0.053373661 -1.1277127
-4.7300944 -0.27690858 -1.1016002
-4.5708137 0.045964088 -1.3588022
-4.481493 -0.17071196 -1.2932538
-4.8436613 -0.62088054 -1.0949565
-4.9907031 -0.88092124 -1.0816758
-4.5905123 -0.49517763 -1.2863119
-4.9205775 -0.77289432 -1.3555403
-6.8569932 0.37469691 -1.0317917
-5.184279 0.65617216 -1.0593497
-5.0775065 0.39450014 -1.0028101
-7.7447619 -0.072398603 -1.1120312
-6.6529646 -0.38302043 -0.8796562
-5.0193486 0.050793629 -0.9397099
-5.138238 -0.18909766 -0.91899085
-7.8145666 0.48686516 -0.74958485
-7.025177 0.23365776 -0.61106366
-6.1918941 -0.2761611 -0.43788284
-7.9242115 0.0065256702 -0.94066823
-8.0315409 -0.25255775 -0.91772395
-6.2042456 -0.54898661 -0.41124731
-6.4249015 -0.77054828 -0.39442223
-6.7078929 -0.50069916 -0.69763428
-8.5885153 -0.92094195 -0.90275413
-49.488289 3.2180743 -2.3540063
-48.742287 1.3272345 -1.9885592
-20.051622 1.5779326 -1.5377834
-6.8052268 0.30028415 -0.33856189
-67.167374 -0.63550901 -2.5059798
-7.2563982 -0.22573902 -0.29333675
-66.785866 -5.6105342 -1.7555382
-45.834827 -3.2284441 -2.7318149
-29.25511 -3.1883111 -1.4864032
-40.609516 1.1136014 1.2430208
-68.390045 5.4114871 -0.91101539
-39.938652 1.631968 -0.16516592
-41.482681 -0.39608133 1.4631115
-52.990948 -2.4837558 2.1497281
-4.7199187 0.30040312 -1.733202
-5.2033172 -0.55395305 -0.89883095
-5.4320755 -0.83011401 -0.87982374
-4.5314288 -0.04882174 -1.6209425
-4.5177865 -0.2680397 -1.5714405
-4.575604 -0.59794527 -1.5490232
-4.6740193 -0.84354204 -1.5479697
-4.7675576 0.27812871 -1.1944265
-4.7796788 0.63880259 -1.5174633
-4.5758667 0.37705779 -1.4109544
-4.6679444 -0.046005659 -1.1261226
-4.7170181 -0.26863268 -1.0980089
-4.5631466 0.053014182 -1.356275
-4.4855576 -0.16383141 -1.2944887
-4.8407845 -0.6128034 -1.0939648
-4.9844317 -0.87170053 -1.0797812
-4.5912848 -0.48796445 -1.2863119
-4.9161186 -0.76425087 -1.3537937
-6.8544278 0.38536689 -1.0314534
-5.1909671 0.66534585 -1.061157
-5.0788255 0.40262154 -1.0032524
-7.7132797 -0.060090501 -1.1069001
-6.683156 -0.37434015 -0.88421726
-5.0153551 0.0586139 -0.93886054
-5.1580944 -0.1818127 -0.92306292
-6.1728621 -0.25580141 -0.4357866
-7.9498777 0.031605162 -0.94443452
-8.0520878 -0.22795053 -0.92052513
-6.1861057 -0.52788502 -0.4092468
-6.3956604 -0.74653977 -0.39142525
-6.7232738 -0.48056021 -0.69952333
-8.6229191 -0.89733678 -0.90687054
-49.495869 3.3747537 -2.3549359
-45.642403 1.3879784 -1.8489232
-19.933388 1.6315033 -1.527894
-6.7942924 0.32122794 -0.33775467
-6.8618641 0.028437801 -0.310496
-7.2052226 -0.20130688 -0.2897253
-51.124168 -3.4366424 -3.0707633
-29.783175 -3.1516843 -1.516463
-35.191849 2.4190075 0.89614612
-39.86639 1.2190387 1.2241153
-68.302963 5.6205335 -0.90987396
-52.978245 -0.33220121 1.8118566
-4.7152486 0.31500188 -1.7317076
-5.1991777 -0.5370295 -0.89765245
-4.5297003 -0.03458295 -1.6202071
-4.5186062 -0.25384623 -1.5714405
-4.5662956 -0.58220905 -1.5448387
-4.6581407 -0.82547075 -1.5411791
-4.7666607 0.29310417 -1.1944265
-4.8019524 0.65727383 -1.5260286
-4.5784321 0.39173183 -1.4122528
-4.6642098 -0.031337138 -1.1250627
-4.7236285 -0.25415677 -1.0995481
-4.5743403 0.067581467 -1.3600658
-4.3187742 -0.14318596 -1.2401577
-4.8446102 -0.59782058 -1.0944606
-4.9833188 -0.8553611 -1.0788338
-4.5832973 -0.47261384 -1.2833207
-4.8958144 -0.74522924 -1.3468075
-6.8413749 0.40624118 -1.0294234
-5.0833702 0.41902515 -1.0045792
-6.8369212 -0.034739319 -0.96451306
-6.700089 -0.35424006 -0.88664985
-5.021008 0.074486174 -0.94013453
-5.1351585 -0.16473594 -0.91817653
-6.1815844 -0.23674518 -0.43662518
-7.941823 0.056498371 -0.94327557
-8.0547438 -0.2027089 -0.92080528
-6.1877327 -0.50844789 -0.4092468
-6.3663335 -0.72272116 -0.38842833
-6.7148623 -0.45879853 -0.69817406
-49.634438 3.5409725 -2.3626823
-45.627827 1.5310338 -1.8484726
-19.969849 1.6977171 -1.5315375
-6.8310843 0.34433454 -0.34082204
-67.353882 -0.21399686 -2.5134127
-7.2257633 -0.1792362 -0.29111433
-54.003033 -3.4583132 -3.2548769
-39.593613 2.8498459 0.98274487
-39.808407 1.3424939 1.2227356
-68.735237 5.8737383 -0.9172442
-45.840965 2.1578722 -0.22032003
-52.935043 -0.16564524 1.8105224
-53.015499 -2.1511745 2.1500945
-45.239525 0.49196601 -0.0019043999
-4.7420053 0.33160323 -1.7429156
-5.1949816 -0.52013588 -0.89647371
-4.5316467 -0.020349789 -1.6209425
-4.521245 -0.23975872 -1.5721586
-4.5643787 -0.56741911 -1.5434438
-4.651453 -0.80916929 -1.5377836
-4.9390798 0.56713146 -1.2930435
-4.7676368 0.30819145 -1.1949714
-4.8241572 0.67589241 -1.5345941
-4.5884895 0.40705276 -1.4161471
-4.6681414 -0.01667605 -1.1261226
-4.7186127 -0.23899034 -1.0980089
-4.5722089 0.081907257 -1.359434
-4.5112119 -0.13653593 -1.3025148
-4.8310642 -0.5808295 -1.0904933
-4.976409 -0.83803827 -1.0764655
-4.5828595 -0.45803332 -1.2827225
-4.7619801 -0.7088263 -1.3048898
-6.8558064 0.42865673 -1.03213
-5.0898046 0.43561888 -1.0063484
-6.8152814 -0.01330052 -0.96098554
-6.7288027 -0.33467045 -0.89090681
-5.0168409 0.090169497 -0.93928516
-5.1356506 -0.14860234 -0.91817653
-6.1743474 -0.21701224 -0.4357866
-7.9396281 0.081419773 -0.94298577
-8.0612803 -0.17755471 -0.9216457
-6.197238 -0.48960096 -0.41004699
-6.3804421 -0.70407695 -0.38955218
-6.9160485 -0.44994697 -0.72543025
-54.799583 4.0852423 -2.6311266
-40.044106 1.4728044 -1.5967673
-19.948542 1.7590213 -1.5301495
-6.8379335 0.36618817 -0.3414678
-68.589218 -0.0019777799 -2.5633421
-7.2442408 -0.15698977 -0.29236442
-69.108559 -5.1493649 -1.8223336
-35.050346 2.6305497 0.89367861
-58.492233 5.1796832 -0.74984878
-34.702164 1.7491292 -0.11647753
-65.965317 0.0072045098 2.2058475
-52.994026 -1.9835609 2.1490684
-45.243748 0.63416654 -0.00193207
-4.687263 0.34287009 -1.721247
-5.2004957 -0.50417286 -0.89725941
-4.5335479 -0.0061058202 -1.6216778
-4.5275674 -0.2258656 -1.5743127
-4.5642772 -0.55286288 -1.5427464
-4.6447096 -0.7929194 -1.5343884
-4.9239364 0.58099955 -1.2891192
-4.762804 0.32292756 -1.1938816
-4.7977285 0.68743145 -1.5260286
-4.5928431 0.4219524 -1.4180943
-4.6778131 -0.0019619199 -1.1287727
-4.7232018 -0.22437081 -1.099035
-4.5757232 0.096371457 -1.3606977
-4.4792962 -0.12130073 -1.2920189
-4.8290143 -0.56522053 -1.0895016
-4.9579473 -0.81880945 -1.0712552
-4.5804744 -0.4432883 -1.2815259
-4.7793193 -0.69615144 -1.3095474
-6.8308177 0.44873059 -1.02807
-5.1000738 0.45258111 -1.0090021
-6.8251605 0.0081584798 -0.96258891
-6.7752285 -0.31582204 -0.89790022
-5.0145802 0.10587756 -0.93886054
-5.1302209 -0.13228731 -0.91695499
-6.1749988 -0.19761215 -0.4357866
-7.0647779 0.091783702 -0.81493497
-8.0598183 -0.1521825 -0.92136544
-6.1927905 -0.46970102 -0.40944684
-6.3747072 -0.68314606 -0.38880295
-7.8512187 -0.4825049 -0.85280585
-54.870113 4.2639346 -2.6354647
-40.073227 1.5999436 -1.5982988
-19.921093 1.8196665 -1.5282412
-6.8228145 0.38693321 -0.34033769
-7.2586627 -0.13453732 -0.29333675
-70.219177 -5.0099115 -1.8545008
-34.541557 2.7011552 0.88384753
-34.776722 1.3948995 1.0942806
-57.215183 5.2472568 -0.72920561
-31.057722 1.6660085 -0.08252795
-66.274826 0.21558878 2.2152488
-52.970043 -1.8160084 2.1479688
-45.389519 0.778938 -0.0026151501
-4.6676574 0.35628599 -1.713775
-5.1864271 -0.48644403 -0.89411634
-4.5298252 0.0081100399 -1.6202071
-4.5133419 -0.21085668 -1.5685685
-4.5510898 -0.53684759 -1.5371673
-4.6360559 -0.77639651 -1.530314
-4.9144678 0.59550333 -1.2868769
-4.7675266 0.33826736 -1.1955162
-4.5952625 0.43671718 -1.4193923
-4.6739397 0.01270326 -1.1277127
-4.7161608 -0.20914491 -1.096983
-4.5791907 0.11086073 -1.3619614
-4.3845816 -0.10439897 -1.2611492
-4.8288403 -0.5498367 -1.0890057
-4.9604955 -0.80322814 -1.0712552
-4.5704389 -0.42789209 -1.2779365
-4.7852683 -0.68169194 -1.3107119
-6.8057694 0.46865487 -1.0240098
-5.1005692 0.46877131 -1.0094444
-6.8251009 0.029602241 -0.96258891
-7.862186 -0.34590915 -1.0651368
-5.0200825 0.1218048 -0.94013453
-5.1580148 -0.11692753 -0.9226557
-6.1895046 -0.17867324 -0.43725401
-7.0130134 0.11295721 -0.80740261
-8.0543165 -0.12674999 -0.92052513
-6.1803384 -0.44929299 -0.40804654
-6.3728623 -0.66268921 -0.38842833
-6.9761214 -0.4096382 -0.73325628
-53.243942 4.3051109 -2.5518019
-40.101933 1.7272615 -1.5998303
-19.94701 1.8852785 -1.5310171
-6.8912272 0.41226879 -0.34598815
-68.769196 -2.2091029 -2.1618376
-7.2770019 -0.11207496 -0.2945869
-71.343536 -4.8645101 -1.8870783
-8.8101854 -0.50266415 -0.35367864
-71.001129 5.8043118 1.6005684
-40.499123 1.7475851 1.2407726
-54.996693 5.2170625 -0.69313723
-34.538727 1.9586452 -0.11506142
-66.743591 0.4269715 2.2295017
-52.947517 -1.6487151 2.1469426
-52.485222 1.0697111 -0.035384271
-4.6535635 0.36999002 -1.7085447
-5.1840229 -0.46981454 -0.89333063
-4.5297771 0.022339979 -1.6202071
-4.5195756 -0.19695342 -1.5707226
-4.549027 -0.52214181 -1.5357724
-4.6254897 -0.75962299 -1.5255606
-4.9106693 0.61069173 -1.2863163
-4.7683601 0.35337415 -1.196061
-4.6051707 0.4521963 -1.4232868
-4.6758051 0.02740792 -1.1282427
-4.7322421 -0.19505021 -1.1010871
-4.590199 0.12562115 -1.3657523
-4.5294132 -0.094468974 -1.3080713
-4.8324699 -0.53486747 -1.0895016
-4.9572415 -0.78669786 -1.0698342
-4.539433 -0.41079277 -1.2677665
-4.7873859 -0.6666562 -1.3107119
-6.8062305 0.49016628 -1.0243481
-5.1029577 0.48514146 -1.010329
-6.8427401 0.051243 -0.9654752
-7.944201 -0.32478467 -1.0776036
-5.0216284 0.13763791 -0.94055927
-5.1466112 -0.10043502 -0.92021251
-6.1900353 -0.15922865 -0.43725401
-6.9750338 0.13412434 -0.80189812
-8.034874 -0.10113426 -0.91772395
-6.1737761 -0.42935699 -0.40724635
-6.382834 -0.64349735 -0.38917762
-8.1252251 -0.44722256 -0.88977718
-51.423012 4.3196301 -2.4580166
-31.290401 1.451941 -1.2023629
-19.982628 1.9520524 -1.5346603
-26.891283 1.6179602 -1.968636
-68.510063 -1.9852595 -2.1526766
-7.267343 -0.089056537 -0.29389238
-8.8097277 -0.47488374 -0.35355079
-36.436771 -3.2837219 -1.8991792
-37.630032 3.1830101 0.94490927
-40.455486 1.8730675 1.2398018
-55.081528 5.3998013 -0.69480044
-34.634224 2.0731533 -0.11601166
-65.510551 0.62441206 2.1921406
-52.970413 -1.4828898 2.1476023
-45.015835 1.0552576 -0.0009167
-4.6671758 0.38574728 -1.7145224
-5.1502934 -0.45062724 -0.88625866
-4.6170921 0.03777713 -1.6547679
-4.5388179 -0.18361591 -1.5779026
-4.5450516 -0.50725693 -1.5336802
-4.6130085 -0.74261409 -1.520128
-4.8725677 0.62130976 -1.2756649
-4.7749038 0.36890298 -1.1982405
-4.6112599 0.46738157 -1.4258833
-4.6737671 0.042068269 -1.1277127
-4.7057934 -0.17900537 -1.0939047
-4.5897813 0.14004016 -1.3657523
-4.5277858 -0.080195203 -1.3074539
-4.8283439 -0.51909375 -1.0880139
-4.9424224 -0.76834506 -1.0655713
-4.8065066 -0.6540271 -1.3159515
-6.7849956 0.51014215 -1.0209646
-5.1208286 0.50297791 -1.0147518
-6.8445191 0.072766997 -0.96579587
-7.9353065 -0.29942217 -1.0760832
-5.0153122 0.15320279 -0.93928516
-5.1429858 -0.084183082 -0.91939819
-7.962554 0.43678737 -0.72238213
-6.1726108 -0.1393003 -0.43536741
-6.9884262 0.15639983 -0.80392611
-7.9183249 -0.074407727 -0.90119725
-6.1830397 -0.41045153 -0.40804654
-6.4026532 -0.62525392 -0.39086336
-8.1246109 -0.42159557 -0.88950729
-50.985382 4.4440165 -2.4360166
-31.3256 1.5521886 -1.2041646
-19.950628 2.0121932 -1.5324051
-26.689096 1.6901597 -1.9526534
-68.372101 -1.7662286 -2.1477175
-7.2915277 -0.0665268 -0.29555917
-8.7553539 -0.44453409 -0.34997082
-36.442924 -3.1688774 -1.8989488
-69.039131 6.0801339 1.5627329
-68.314201 6.9200916 -0.91199374
-34.589615 2.1795986 -0.11565767
-66.38179 0.84165251 2.2186451
-52.982803 -1.3166585 2.1478951
-44.94632 1.1948943 -0.00061207998
-4.6548457 0.39951894 -1.7100391
-5.157548 -0.43490833 -0.8874374
-4.7099328 0.053859919 -1.6915345
-4.5263186 -0.16879275 -1.5728765
-4.5447593 -0.49278301 -1.5329828
-4.6041803 -0.72629607 -1.5160537
-4.8059139 0.62781352 -1.2566046
-4.7775588 0.38419098 -1.1993302
-4.6191807 0.4827978 -1.4291285
-4.6793966 0.056854881 -1.1293027
-4.7275796 -0.16507831 -1.0995481
-4.5817351 0.15416171 -1.3632251
-4.5413289 -0.066239491 -1.3117757
-4.8260942 -0.50353962 -1.0870219
-4.939054 -0.75190556 -1.0641505
-4.566658 -0.38420197 -1.2755435
-4.7895846 -0.63630056 -1.3101296
-12.425496 1.6224217 -2.0884016
-6.775496 0.53087139 -1.0196114
-5.1211643 0.51925135 -1.0151941
-6.8343878 0.094097838 -0.96419239
-7.9421349 -0.27471334 -1.0769955
-5.0226169 0.16926321 -0.94098401
-5.1373515 -0.067916669 -0.91817653
-7.8619776 0.45637089 -0.71068907
-6.1909142 -0.12033202 -0.43725401
-7.0155926 0.17916235 -0.80798197
-7.9304013 -0.049646091 -0.90287787
-6.190258 -0.39137787 -0.4086467
-6.3451366 -0.59927809 -0.38524407
-8.0922413 -0.39453831 -0.88491952
-49.52507 4.472795 -2.3609266
-31.330545 1.6511047 -1.2046151
-20.118582 2.093225 -1.5476725
-22.104494 1.4740303 -1.5810153
-7.2956905 -0.043658979 -0.29583699
-32.412601 -1.4733038 -1.8668636
-37.708858 3.4285076 0.94686764
-31.000738 1.6366596 0.9981693
-52.661903 5.4957457 -0.65569907
-34.644463 2.2922943 -0.1162353
-52.566978 0.82625204 1.7995443
-52.986675 -1.1502119 2.1478951
-45.130257 1.3417779 -0.0014797701
-4.6757536 0.41598967 -1.7190056
-5.1569338 -0.4185555 -0.88704449
-4.6781292 0.068020083 -1.6790339
-4.5175004 -0.15420087 -1.5692863
-4.5350928 -0.47739008 -1.5287983
-4.6138687 -0.71301955 -1.51877
-4.8362432 0.64741033 -1.2661347
-4.9144611 0.40998799 -1.2385595
-4.6270518 0.49826628 -1.432374
-4.6791954 0.071554452 -1.1293027
-4.7261429 -0.15015428 -1.099035
-4.5944991 0.16911769 -1.3676479
-4.8237958 -0.48800713 -1.0860302
-4.9452319 -0.73697907 -1.0650977
-4.600194 -0.37228918 -1.2857134
-4.6455564 -0.60152185 -1.2653011
-12.236947 1.6365277 -2.0553777
-5.1369767 0.53707397 -1.0191747
-6.8557692 0.11601666 -0.96772003
-7.9390068 -0.24962538 -1.0763872
-5.0201087 0.18495837 -0.94055927
-5.1414547 -0.05183715 -0.91899085
-18.192493 1.6856679 -2.0386233
-7.8664546 0.48141247 -0.71139067
-6.1833067 -0.1007188 -0.43641549
-7.003129 0.20081754 -0.80624378
-7.9146767 -0.02463007 -0.90063709
-6.1755619 -0.3710404 -0.40704632
-6.354918 -0.58009744 -0.3859933
-8.1191788 -0.37020454 -0.88842773
-48.476715 4.5311508 -2.3072171
-31.1297 1.7387692 -1.1957865
-17.213953 1.84193 -1.2938471
-21.634377 1.5115139 -1.5432379
-68.63166 -1.3415895 -2.1563272
-7.2977867 -0.02075115 -0.29597592
-32.285454 -1.3660053 -1.858425
-68.931892 6.5073714 1.5614012
-57.88916 6.2277713 -0.74172848
-33.910828 2.3513234 -0.10945283
-40.625854 0.76032442 1.437274
-40.444744 -0.74468607 1.687695
-42.857113 1.4076602 0.0089971097
-4.672574 0.43051714 -1.7182583
-5.1621351 -0.40263763 -0.8878302
-4.6816106 0.082803138 -1.6805044
-4.5216937 -0.14014488 -1.5707226
-4.5384364 -0.46331984 -1.5294957
-4.5993605 -0.6958946 -1.5126585
-4.8455896 0.66422588 -1.2694983
-4.8191657 0.41778645 -1.2118617
-4.6311078 0.51339418 -1.4343213
-4.6962986 0.086670741 -1.1340728
-4.7150002 -0.13491011 -1.095957
-4.5844669 0.1831187 -1.3644886
-4.825305 -0.47285014 -1.0860302
-4.9340739 -0.71940672 -1.0617821
-4.5918236 -0.35714898 -1.2827225
-4.6815681 -0.59142905 -1.2757806
-12.026981 1.646485 -2.0184894
-5.1469064 0.55440474 -1.0218284
-6.8455038 0.13731897 -0.96611655
-7.9298744 -0.22437079 -1.074867
-5.0273123 0.20108162 -0.94225824
-5.131803 -0.03556687 -0.91695499
-18.463696 1.7697155 -2.0729325
-6.1876316 0.40374267 -0.51354313
-6.153749 0.11054148 -0.47666883
-6.2074566 -0.08170668 -0.43893099
-7.0222397 0.22352061 -0.80914092
-7.9166946 0.00022864 -0.90091711
-6.1786847 -0.351742 -0.40724635
-6.4181752 -0.5657984 -0.39179993
-8.1203022 -0.34469521 -0.88842773
-6.7150078 -0.50156355 -0.65576559
-47.20187 4.5609426 -2.2417328
-31.283649 1.8458412 -1.2029935
-17.202139 1.8953372 -1.2933266
-20.88389 1.5259233 -1.4826975
-52.517807 1.1475147 -1.9140974
-68.631523 -1.1258999 -2.1561894
-7.3357239 0.00205219 -0.29861504
-8.0670834 -0.33545294 -0.30560452
-68.650406 6.6983628 1.5562705
-34.474796 2.0344346 1.0873827
-58.236992 6.4504976 -0.74776161
-33.983063 2.4635706 -0.11019816
-33.914051 0.73700571 1.2336675
-52.984863 -0.81713402 2.1476023
-40.084366 1.4409876 0.02178167
-4.6767421 0.44569185 -1.7204999
-5.1711998 -0.38696414 -0.88940173
-4.6906238 0.097755939 -1.6841812
-4.5351701 -0.12637751 -1.5757487
-4.5380025 -0.44888559 -1.5287983
-4.5996647 -0.68115562 -1.5119793
-4.8700752 0.68332094 -1.2773467
-4.8561807 0.43616292 -1.2227588
-4.6426368 0.52936792 -1.4388648
-4.688292 0.10121512 -1.1319529
-4.719265 -0.12021633 -1.096983
-4.5895548 0.19779781 -1.3663841
-4.543653 -0.023457291 -1.312393
-4.822907 -0.45734331 -1.0850384
-4.9478431 -0.70560813 -1.0646241
-4.579596 -0.34180257 -1.2785347
-11.760547 1.6470958 -1.9714129
-5.164535 0.57262409 -1.0262512
-6.8410912 0.1587178 -0.9654752
