# .PCD v0.7 - Point Cloud Data file format
VERSION 0.7
FIELDS x y z
SIZE 4 4 4
TYPE F F F
COUNT 1 1 1
WIDTH 1557
HEIGHT 1
VIEWPOINT 0 0 0 1 0 0 0
POINTS 1557
DATA ascii
20.234009 17.450634 -0.71158522
18.657528 17.342688 -0.53781152
17.401611 17.416004 -0.33520836
36.156872 24.67345 1.0626068
34.674522 25.659094 1.3071972
27.001528 17.919458 -0.32071275
24.828018 17.853016 -0.077664688
33.407223 26.683929 1.5016857
43.50182 37.491165 2.3103364
22.764627 17.674444 0.073889181
21.962456 18.399715 0.24525566
11.887773 8.667347 -1.5156436
21.774982 19.607914 0.43973717
32.659313 31.699305 0.83658224
8.9414444 8.0681782 -1.4216783
20.343336 17.433842 -0.7140649
18.914782 17.470957 -0.54589731
17.576632 17.481213 -0.33895975
36.482605 24.72785 1.0684819
34.585903 25.425556 1.3018322
27.151255 17.896074 -0.32253897
24.984831 17.847067 -0.078819953
34.460659 27.347467 1.5392289
43.584518 37.324364 2.3086505
22.900875 17.665047 0.073418409
22.012486 18.324205 0.24524212
11.982416 8.6790171 -1.5254657
21.075771 18.859947 0.43160135
27.648872 26.662338 0.73810381
9.0155287 8.0836029 -1.4305838
20.486195 17.445097 -0.71805984
18.968094 17.410101 -0.54583871
17.604467 17.399179 -0.33812124
36.651371 24.674484 1.0706362
34.870571 25.466665 1.3083214
27.379761 17.923368 -0.32589799
25.145096 17.842651 -0.080012463
36.503284 28.780165 1.6148005
23.1437 17.736403 0.072329193
22.145401 18.317497 0.24537477
12.075641 8.6890116 -1.5350541
22.636641 20.126545 0.44761777
27.922964 26.758121 0.74176347
9.092762 8.1012707 -1.440029
20.639996 17.464672 -0.72253704
19.065569 17.389454 -0.54753786
17.666162 17.350803 -0.33834183
36.929916 24.6936 1.0753753
34.698055 25.173683 1.3003504
27.514769 17.888435 -0.32743073
25.201021 17.763573 -0.080012463
34.239769 26.823681 1.5241268
48.096016 40.670204 2.514194
23.285288 17.728958 0.071830727
22.230623 18.270721 0.2454235
22.501768 19.880718 0.44551203
32.668594 31.115484 0.831065
9.1746578 8.1224651 -1.4502839
20.755905 17.451262 -0.72529221
19.182371 17.385799 -0.54999876
17.803492 17.376312 -0.34090167
37.175617 24.6891 1.0793313
35.182285 25.357058 1.3131244
27.82295 17.964422 -0.33232242
25.381136 17.771601 -0.081428573
36.610786 28.493818 1.6120106
48.203659 40.502193 2.5132411
23.494093 17.771414 0.070944577
22.427225 18.314775 0.24566713
21.442095 18.826571 0.43361139
27.811829 26.318045 0.7364403
9.2582684 8.1445255 -1.4608085
20.878073 17.442413 -0.72832286
19.306782 17.388254 -0.55275261
17.979876 17.438742 -0.34465301
37.461727 24.709682 1.0842271
35.253654 25.24057 1.3128688
27.93989 17.915731 -0.33349651
25.628828 17.825535 -0.083608642
35.733452 27.632025 1.5749526
48.273922 40.303123 2.5105288
23.634609 17.761118 0.070455343
22.307735 18.100403 0.24535853
23.116404 20.165808 0.45069665
26.888325 25.283224 0.71728247
11.093946 8.5512686 -1.3604336
9.3346281 8.1596384 -1.4699838
21.061848 17.484108 -0.73410875
19.407532 17.368805 -0.55456895
18.056139 17.403009 -0.34531504
37.719887 24.710117 1.0884572
35.634064 25.344257 1.3223217
28.114164 17.902969 -0.33577931
25.829412 17.845095 -0.085248373
23.780092 17.753708 0.069938444
22.604094 18.223766 0.2457754
22.3766 19.398176 0.44222578
27.507896 25.704187 0.72754061
11.133395 8.5260181 -1.3622229
9.4111757 8.1743507 -1.4791592
21.164433 17.457329 -0.73624402
19.61002 17.439123 -0.56036961
18.139574 17.373894 -0.34619772
37.995174 24.720064 1.093079
35.702076 25.22411 1.321964
28.341055 17.922379 -0.33907306
25.956207 17.812584 -0.086049601
36.72031 28.027521 1.606006
73.269424 60.41151 3.6869795
23.93862 17.755079 0.069347657
22.725182 18.203989 0.2458864
22.466249 19.352551 0.4425289
27.216532 25.271742 0.72049856
11.199726 8.5210085 -1.367815
9.4954262 8.195117 -1.4896839
21.277874 17.43895 -0.73886138
19.711195 17.418415 -0.562186
18.289568 17.407898 -0.3491106
38.230583 24.702486 1.0967606
35.76643 25.101467 1.3215041
28.566654 17.939466 -0.34233421
26.025255 17.739967 -0.086198673
36.408207 27.609053 1.5907825
73.525337 60.2355 3.6901319
24.148952 17.793537 0.068461508
22.907364 18.23225 0.24610296
21.432178 18.346472 0.431043
27.85247 25.700474 0.73100621
11.293127 8.5359888 -1.3772097
9.5814056 8.2167215 -1.5004784
21.419292 17.442774 -0.74271864
19.959776 17.526371 -0.56974441
18.399321 17.402617 -0.3507877
38.568958 24.749493 1.1028316
36.027096 25.115995 1.3271757
28.734921 17.919374 -0.34448659
26.198378 17.737816 -0.087521628
36.565052 27.547417 1.5934513
73.715782 60.005463 3.6902051
24.346846 17.821407 0.067649201
22.737223 17.980104 0.24571043
22.678877 19.288668 0.44348603
32.777905 30.06138 0.82219309
11.381951 8.5469007 -1.3859332
9.6706333 8.2404346 -1.5118127
14.619687 9.0585957 -1.2839577
21.548506 17.435822 -0.74602485
20.047903 17.492468 -0.57103348
18.557243 17.442066 -0.35392129
38.79834 24.724836 1.1063566
36.117317 25.010668 1.3275334
28.908436 17.901573 -0.34673673
26.746588 17.987295 -0.09305568
37.176571 27.825022 1.6133448
73.745445 59.645351 3.6827281
24.443174 17.774208 0.067418441
22.964891 18.043425 0.24600551
22.881521 19.337261 0.44496965
28.001574 25.514193 0.73078448
11.469362 8.5561514 -1.394433
9.7373781 8.2445068 -1.5190991
14.66166 9.020957 -1.2853458
21.814875 17.53857 -0.75539243
20.155666 17.475187 -0.57308418
18.610485 17.382315 -0.35387707
49.034416 31.023733 1.3417516
36.452583 25.073999 1.3355044
29.175859 17.940399 -0.35078061
26.836208 17.925428 -0.093428358
38.9762 28.979893 1.6780599
73.737747 59.256836 3.6735651
24.638405 17.797932 0.066624597
23.207363 18.116577 0.24632493
22.448078 18.911282 0.44013599
32.827469 29.823164 0.82047415
11.545072 8.5842628 -1.4031568
9.815546 8.284029 -1.5307032
14.735319 9.0342779 -1.2914181
21.884478 17.538073 -0.75725216
20.27846 17.525766 -0.57677555
18.726946 17.43627 -0.35656929
72.895699 45.945522 1.8929912
36.554558 25.059706 1.337446
29.378004 18.000986 -0.35410702
27.000765 17.974239 -0.094956227
35.499691 26.311443 1.5451121
73.677895 59.018452 3.6663814
24.741034 17.812897 0.066199988
23.270493 18.107157 0.24638449
22.604059 18.921461 0.44114101
32.814171 29.623344 0.81847793
11.645615 8.6021376 -1.4134459
9.9069271 8.3077774 -1.5423074
14.828358 9.0272169 -1.2980111
21.928528 17.46051 -0.75677001
20.383507 17.504913 -0.57870907
18.878405 17.467079 -0.35948217
72.914223 45.637829 1.8900926
37.079124 25.248848 1.3512419
29.569426 17.99062 -0.35668331
27.170477 17.964424 -0.09622331
36.88665 27.159126 1.5942396
50.675014 40.321251 2.5792143
24.923832 17.825731 0.065479986
23.496449 18.165001 0.24667414
22.698786 18.87973 0.44150794
32.805908 29.429232 0.81659263
11.752806 8.6241541 -1.4246299
9.983305 8.3183718 -1.5512128
14.935152 9.0278797 -1.3059919
22.116421 17.497063 -0.76262474
20.499285 17.492632 -0.58105278
18.961128 17.433418 -0.36032069
72.955322 45.345211 1.8877425
37.570477 25.411369 1.3639648
29.761086 17.979216 -0.35925961
27.233467 17.883366 -0.096297853
50.550663 39.963417 2.5674858
25.137959 17.85956 0.064584598
23.700815 18.204519 0.24692589
22.89221 18.919044 0.4428958
32.857925 29.290068 0.81584412
11.844169 8.6339006 -1.4335773
10.065962 8.3336115 -1.5611976
15.047228 9.0310278 -1.3144932
22.359726 17.575893 -0.77089024
20.676226 17.531454 -0.58574015
19.060055 17.414265 -0.36164474
72.97319 45.039143 1.8848834
37.905617 25.465052 1.3718336
30.042179 18.020208 -0.36353177
27.4536 17.904909 -0.098123863
35.741245 25.972164 1.5449301
50.482708 39.65247 2.5584693
25.233185 17.808138 0.064363062
23.626017 18.029144 0.24670121
24.512161 20.126293 0.458992
32.79866 29.052685 0.81304389
11.938928 8.6454897 -1.4429719
10.161074 8.3584652 -1.5733416
15.16632 9.0376396 -1.3236885
22.477795 17.554834 -0.7736454
20.751087 17.483141 -0.58650184
19.170868 17.405434 -0.36332184
72.967674 44.719872 1.8815149
38.183258 25.478018 1.377914
30.301468 18.046339 -0.3673799
27.690905 17.936146 -0.10013627
72.481018 56.5784 3.5764377
25.416815 17.818222 0.063643068
23.781286 18.02984 0.24686904
24.592323 20.063082 0.45916748
32.858257 28.921745 0.81246167
12.035489 8.6577263 -1.4525902
10.237996 8.3677893 -1.582247
15.277017 9.0385284 -1.3320162
22.59911 17.535662 -0.77653837
20.891815 17.489649 -0.58978301
19.375261 17.480556 -0.36777937
32.54657 19.8234 0.95164603
38.044865 25.213131 1.3712204
30.488884 18.028318 -0.36985844
27.963978 17.988811 -0.10253997
37.164894 26.650387 1.5919956
73.195259 56.767033 3.6013608
25.531784 17.779388 0.063310772
23.995859 18.074306 0.24713704
22.896929 18.562805 0.44112504
22.579962 19.738382 0.62138242
12.137109 8.6728907 -1.4628794
10.298134 8.362998 -1.588184
15.391313 9.0408163 -1.3406911
22.728443 17.521997 -0.77977568
21.109709 17.55928 -0.59599382
19.433064 17.422268 -0.36786771
59.376953 35.884991 1.5641431
38.384323 25.265104 1.3791914
30.712725 18.030518 -0.37302172
28.069208 17.932125 -0.10308032
43.433289 30.933887 1.8222886
25.765265 17.821806 0.06231384
24.158146 18.078001 0.24731569
24.256556 19.537216 0.45444548
32.924679 28.61495 0.81035459
12.234069 8.6840677 -1.4724979
9.4577141 8.1965342 -1.405736
15.521272 9.0514946 -1.3509274
22.924505 17.558811 -0.78590596
21.207945 17.528502 -0.59763443
19.596588 17.45834 -0.37108946
59.647163 35.792885 1.5677464
67.266975 43.997097 2.2589607
30.917858 18.020441 -0.3758263
28.250301 17.923239 -0.10445915
43.456787 30.745377 1.8195595
66.984863 51.276817 3.2980301
25.928328 17.814308 0.061713841
24.028748 17.863445 0.24700168
24.070932 19.263689 0.45192498
32.903973 28.415895 0.80833071
12.339347 8.7004309 -1.4832346
9.5419235 8.2173796 -1.4157698
15.632465 9.0504913 -1.3592553
23.017702 17.515793 -0.78755903
21.31547 17.504881 -0.59962654
19.715654 17.453743 -0.37298721
73.092575 43.542702 1.871684
72.846123 47.322678 2.4248183
31.190762 18.048264 -0.37990272
28.521252 17.969963 -0.10682555
43.569515 30.620192 1.8201659
67.047012 50.991096 3.2934854
26.071766 17.792446 0.06122461
24.602444 18.170918 0.24787334
24.099998 19.163109 0.45160592
32.93544 28.262867 0.80727714
12.44159 8.7139444 -1.4935238
9.6203394 8.2326069 -1.4247746
15.745536 9.0498686 -1.3677566
21.43701 17.492119 -0.60214603
19.912886 17.517328 -0.37717992
32.524555 19.254139 0.94553596
72.880203 47.019867 2.4213436
31.460672 18.072557 -0.38391399
28.752106 17.989676 -0.10874476
73.882065 55.827118 3.6004078
26.482002 17.950308 0.059249241
24.295208 17.825838 0.24726155
24.199356 19.118246 0.45200473
32.946514 28.093012 0.80586314
12.540781 8.7246237 -1.503366
9.6838713 8.2345343 -1.4312067
15.869155 9.0545187 -1.3772991
21.564913 17.483774 -0.60489988
20.027998 17.507368 -0.37894535
59.728348 35.080353 1.5619888
72.906418 46.712917 2.4176648
31.649387 18.048803 -0.38639247
28.947725 17.985891 -0.11027269
72.637321 50.348991 2.8859313
73.942078 55.508263 3.5951302
26.692648 17.970757 0.058390781
24.399561 17.784792 0.24734277
24.056219 18.883007 0.44994685
32.959881 27.925983 0.80450463
12.628694 8.7268877 -1.5116422
9.7671623 8.2528334 -1.4409833
16.001625 9.0633917 -1.3877087
21.755272 17.524925 -0.60999745
20.200541 17.546753 -0.38238776
59.757046 34.845226 1.560148
72.927994 46.404198 2.4138837
31.899172 18.058508 -0.39001238
29.20653 18.019983 -0.11249004
72.71608 50.066166 2.8830199
73.957504 55.157364 3.5878732
26.878716 17.973423 0.057670791
24.528158 17.7609 0.24746458
23.458542 18.35524 0.4435977
32.899868 27.786369 0.80261934
12.691547 8.740777 -1.5183525
9.83463 8.2835903 -1.4502454
16.104408 9.0880651 -1.3965571
21.926292 17.605751 -0.61538792
20.317186 17.59231 -0.38499171
59.739071 34.709167 1.5585029
72.877563 46.211395 2.4101536
32.147045 18.13201 -0.39412141
29.415302 18.085253 -0.11446516
72.675941 49.870483 2.878653
72.493286 53.887676 3.5169883
26.911913 17.934505 0.057643089
24.651649 17.791491 0.24762429
24.391413 18.960711 0.45243546
24.513966 20.563545 0.64919037
12.718943 8.7008657 -1.5183525
9.9334869 8.3139038 -1.4625947
16.233778 9.0937653 -1.4066198
21.976799 17.533051 -0.61521214
20.426872 17.575401 -0.38658059
48.607407 28.043287 1.304386
72.902267 45.906551 2.4065259
32.434258 18.159727 -0.39842618
29.562399 18.048059 -0.11545269
48.591148 33.129848 1.9887766
72.496643 53.53735 3.5094383
27.17837 17.988794 0.056480009
24.832499 17.803801 0.24783273
24.322565 18.785088 0.45114332
32.969406 27.491972 0.8007341
10.011317 8.325881 -1.4713423
16.361601 9.0977793 -1.4165092
22.157192 17.563156 -0.61989951
20.536652 17.557978 -0.38816941
33.069462 18.950315 0.95176357
72.929176 45.604137 2.4030001
32.590816 18.113054 -0.40028501
29.736897 18.026726 -0.11673839
48.736382 33.005051 1.9902928
72.508194 53.194622 3.5023277
27.333401 17.968069 0.055935401
25.007154 17.810503 0.24803035
23.809898 18.270763 0.44540036
32.884773 27.246521 0.79765666
10.093904 8.3412457 -1.4808617
16.454695 9.0818605 -1.4229286
22.327 17.583643 -0.6241768
20.754633 17.632042 -0.39289176
59.752308 33.967838 1.551492
72.946434 45.296692 2.399219
32.996143 18.202547 -0.40677476
30.072559 18.101532 -0.11977561
72.710487 52.992451 3.5039403
27.461763 17.929056 0.055538479
25.183737 17.817429 0.24823067
24.053391 18.33757 0.44726682
33.008789 27.174866 0.79834974
12.041499 8.7178307 -1.3514217
10.175152 8.3549099 -1.4901237
16.511126 9.0453949 -1.4257047
22.487698 17.595852 -0.62810248
20.845041 17.596445 -0.39390689
48.463711 27.355089 1.2952601
72.962471 44.989586 2.395438
33.167221 18.161139 -0.40889448
30.318029 18.119955 -0.12182523
74.083351 49.478218 2.9073412
73.630867 53.310162 3.5381
27.813454 18.033953 0.053913862
25.372051 17.831474 0.24844992
24.080566 18.238998 0.44696373
32.993435 26.988674 0.79654765
12.115595 8.7137203 -1.3575007
10.261189 8.3719215 -1.5001576
22.579187 17.55331 -0.62945008
20.988997 17.60549 -0.39646661
73.176964 40.986664 1.8480661
72.994339 44.69331 2.3921678
33.429756 18.16844 -0.41271001
30.665339 18.197315 -0.12497424
74.236748 49.244141 2.9072804
73.781754 53.06691 3.5373666
27.886795 17.95731 0.053821549
25.495142 17.798676 0.24856092
25.856749 19.454473 0.46411282
33.020664 26.838192 0.79552186
12.218877 8.730094 -1.367353
10.370502 8.4072552 -1.5140507
22.730797 17.556749 -0.63302428
21.120939 17.60355 -0.39867336
48.569939 27.01413 1.293811
73.007973 44.386879 2.3883867
33.729633 18.194183 -0.41721046
30.997929 18.263529 -0.12795554
67.238205 44.301193 2.6474502
43.495228 31.063572 2.1643889
28.10153 17.970778 0.052953869
25.702042 17.823479 0.24880996
25.993076 19.429354 0.46486259
32.969528 26.62492 0.79310977
12.317525 8.7424374 -1.3765764
10.43542 8.4058104 -1.5204828
22.89377 17.567909 -0.63700855
21.291548 17.632864 -0.40198338
44.019669 24.305368 1.1901354
59.456455 35.886868 1.9796194
34.022957 18.214432 -0.42158037
31.106924 18.196381 -0.12851454
67.23819 43.998905 2.6424162
43.419884 30.80409 2.1566186
28.247372 17.939152 0.052464649
25.873142 17.822149 0.24899945
25.846735 19.193954 0.46280468
33.007797 26.484894 0.79230577
12.40013 8.7427607 -1.3837036
10.514343 8.415226 -1.5292304
23.069754 17.58791 -0.64146155
21.362263 17.578608 -0.40242475
43.955479 24.090155 1.1870019
73.050529 43.786388 2.3813865
34.238998 18.191799 -0.42451543
31.269382 18.15991 -0.12965114
67.347572 43.768955 2.6413851
43.534401 30.680214 2.1574249
28.449144 17.941969 0.05167079
26.075823 17.841417 0.24924037
26.030897 19.203991 0.46403301
33.014248 26.319941 0.79094726
12.510521 8.7620993 -1.3943944
10.604277 8.4328909 -1.5397787
23.187084 17.562372 -0.64374667
21.482344 17.564634 -0.40427834
35.68325 19.416586 1.0009184
59.902351 35.644585 1.9862108
34.51717 18.200596 -0.42859185
31.450966 18.133608 -0.13099276
74.295296 47.949844 2.8872654
43.466888 30.428606 2.1500945
28.798742 18.035931 0.050073881
26.264 17.849461 0.24945694
26.078186 19.112675 0.46390539
33.03096 26.16391 0.78978282
12.617894 8.7785501 -1.4046659
10.705301 8.4587021 -1.5521281
23.374813 17.589092 -0.64860988
21.625809 17.569012 -0.40679407
39.677738 21.425611 1.0884572
59.690475 35.264915 1.9766047
34.838264 18.230043 -0.433451
31.559828 18.064558 -0.13155176
72.896866 46.72422 2.8314662
28.969105 18.016052 0.049455419
26.41935 17.834087 0.24961936
25.942368 18.888351 0.46197516
33.036049 25.999338 0.78842431
12.704252 8.779664 -1.4122125
10.781676 8.4643078 -1.5603611
16.004761 9.0776234 -1.2770209
23.55975 17.612396 -0.65335584
21.763309 17.567608 -0.40913314
36.857071 19.755281 1.0243013
59.756168 35.050854 1.9752764
35.195408 18.276028 -0.4389624
31.844124 18.094893 -0.13399266
72.901642 46.404797 2.8263714
72.71067 50.243656 3.4455905
29.192408 18.02779 0.048550811
26.623022 17.850225 0.24986027
25.912397 18.742378 0.46109772
25.316896 19.788122 0.65107566
12.818581 8.7995176 -1.4233224
16.12866 9.0812273 -1.2859004
23.730595 17.624018 -0.65757447
21.971136 17.621897 -0.41345829
73.338264 38.983986 1.8320469
59.769249 34.806583 1.972415
35.40202 18.242222 -0.44170177
32.167221 18.145294 -0.13684358
72.925377 46.098682 2.8220048
72.742928 49.929005 3.4400196
29.390476 18.022665 0.04778466
26.8703 17.894146 0.2501716
25.512871 18.332163 0.45659912
33.089832 25.706541 0.78651124
12.934798 8.8198614 -1.4346421
16.254478 9.0851183 -1.2949409
23.863108 17.606285 -0.66038698
22.060762 17.580236 -0.41442931
61.497341 32.447193 1.5671589
59.786575 34.565575 1.9697068
35.777962 18.293671 -0.44753927
32.532799 18.217316 -0.14014159
72.968224 45.805626 2.8183656
48.508408 33.06078 2.3571041
29.546068 17.990501 0.047249269
27.05809 17.896915 0.25038543
26.044352 18.651468 0.46152848
24.237192 18.75938 0.63050389
12.996289 8.8320341 -1.4407212
16.369663 9.1159697 -1.3043046
24.024492 17.666969 -0.66525006
22.190041 17.626497 -0.41729796
61.372955 32.258522 1.5632813
59.757648 34.423695 1.9672542
36.025902 18.348948 -0.45155042
32.568359 18.170101 -0.14021616
73.963921 46.268482 2.8514206
48.591679 33.005901 2.3584969
29.854834 18.114002 0.04573543
27.156263 17.900681 0.25049913
26.256088 18.678411 0.46302801
25.76936 19.818119 0.65628791
13.107952 8.848053 -1.451412
16.483644 9.1118755 -1.3122153
24.123486 17.623211 -0.66683209
22.355093 17.643513 -0.42038733
59.697178 31.139605 1.5240358
59.761391 34.176212 1.9641883
36.315464 18.352789 -0.45578998
32.86837 18.202545 -0.14280616
74.005295 45.971584 2.8477209
48.840881 32.951523 2.3649476
30.016136 18.083006 0.045172349
27.434799 17.961159 0.25085917
26.466625 18.703049 0.46451163
25.731447 19.660488 0.65454125
13.224799 8.8667841 -1.4627316
16.623957 9.1215658 -1.3225474
24.3293 17.656403 -0.67228115
22.484316 17.631248 -0.42246169
59.739658 30.923416 1.5228217
59.732872 33.911236 1.9602029
36.635799 18.370197 -0.46058387
33.33709 18.325869 -0.14718492
74.351868 45.863678 2.8549385
49.057037 32.873615 2.3699324
30.304613 18.127039 0.043926209
27.596672 17.943642 0.2510297
26.404062 18.534864 0.4633311
33.109421 25.142635 0.78196442
13.315434 8.8671856 -1.4706974
16.764492 9.1304646 -1.3328795
24.490129 17.655777 -0.6760897
22.564821 17.580202 -0.42316788
38.434662 19.752764 1.05164
73.157478 41.235832 2.3509846
33.487518 18.27187 -0.14817251
74.408653 45.576618 2.8518453
49.120159 32.692726 2.3681729
30.57818 18.160254 0.042763129
27.817488 17.963303 0.251295
26.998899 18.825453 0.46854764
25.983723 19.59606 0.65678698
13.431052 8.8836079 -1.4818074
16.884216 9.1271753 -1.3412745
24.763399 17.734547 -0.68394107
22.773201 17.62809 -0.42744887
59.797356 30.478489 1.5198449
73.175003 40.943287 2.3477144
33.769768 18.288639 -0.15055753
74.435287 45.272041 2.8477209
67.187523 44.425201 3.1582403
30.910843 18.22644 0.041286219
28.013439 17.965549 0.25151968
28.355806 19.637968 0.48113424
26.395433 19.777224 0.66285866
13.541924 8.8961096 -1.4922886
17.016369 9.1298351 -1.3507996
24.895594 17.711069 -0.68669492
22.921913 17.628468 -0.43005282
61.540115 31.12281 1.5559963
73.200157 40.65591 2.3446999
33.915096 18.229868 -0.15148921
74.459038 44.966721 2.8435359
67.007721 44.004269 3.1442392
31.076725 18.192825 0.040704679
28.229918 17.979654 0.25177684
27.443068 18.879623 0.47170627
26.350023 19.614107 0.66100115
13.656338 8.9101725 -1.503189
17.157501 9.1364431 -1.3611319
25.036064 17.692686 -0.68974173
23.0788 17.634148 -0.43287736
60.808167 30.513496 1.5378227
43.936779 24.210598 1.4868504
34.263245 18.278736 -0.15456365
74.555359 44.705837 2.841959
67.2444 43.857971 3.1485643
31.282501 18.181417 0.039910842
28.495756 18.023598 0.25211251
27.490675 18.785433 0.47159457
33.308647 24.640089 0.77999592
13.685928 8.8683119 -1.5033988
17.281223 9.1329241 -1.3698497
25.281437 17.747028 -0.69653845
23.210478 17.619659 -0.43499583
61.426517 30.582352 1.5492595
44.047695 24.091661 1.4878724
34.712734 18.379017 -0.15870021
74.542549 44.38044 2.8365612
31.502363 18.176895 0.03904314
28.701204 18.027721 0.25235072
27.582664 18.72142 0.47191364
33.32629 24.491486 0.77897012
12.575016 8.7968187 -1.327858
17.443903 9.1491404 -1.3821194
25.404337 17.714348 -0.69894075
23.342289 17.604521 -0.4371143
73.473701 36.287071 1.8103091
44.151264 23.968452 1.4886899
35.00922 18.395624 -0.16121571
73.06366 43.190311 2.7795486
74.375206 47.848602 3.447643
31.712088 18.165216 0.038230851
28.888296 18.019075 0.25255916
27.654613 18.643612 0.47204125
33.51123 24.465744 0.7808277
12.646763 8.7878561 -1.3332592
17.564449 9.1422768 -1.3905144
25.550299 17.696985 -0.70216334
23.560583 17.653543 -0.44161594
73.479576 36.003319 1.807959
48.945641 26.375601 1.6257291
35.21397 18.362402 -0.16276224
60.100506 35.278461 2.3188412
72.955742 46.611366 3.3793242
31.890739 18.134621 0.037584711
29.123201 18.03895 0.25284341
27.633251 18.503269 0.47127551
33.778885 24.49898 0.78409922
12.726784 8.7841568 -1.3396606
17.683359 9.1338129 -1.3987477
25.698071 17.679989 -0.70544451
23.71051 17.649948 -0.44421989
73.509605 35.732056 1.8061572
49.03709 26.226383 1.6259845
35.413544 18.325275 -0.16425289
60.250805 35.112568 2.3202364
72.919617 46.266178 3.3714073
32.095673 18.117785 0.03680009
29.261477 17.9977 0.25297335
28.132772 18.709517 0.47550297
26.486191 19.076113 0.65811777
12.82497 8.7923985 -1.3482625
25.935144 17.723095 -0.71188968
23.87348 17.655127 -0.44717681
73.513405 35.448883 1.8038073
35.664795 18.313643 -0.16628395
60.274269 34.873096 2.3172035
72.951332 45.965462 3.3664961
32.501511 18.212156 0.034953918
29.56354 18.055988 0.25336313
28.128769 18.643232 0.47518396
34.131001 24.509996 0.78814703
12.907854 8.8192797 -1.3566645
26.100172 17.775623 -0.71675289
24.110289 17.77202 -0.45291436
73.487877 35.294441 1.8020447
73.232254 38.738354 2.3220642
35.869728 18.347876 -0.16812859
60.25275 34.734474 2.3145349
73.001442 45.837002 3.3655431
32.648869 18.227295 0.034326259
29.69945 18.075117 0.25353369
28.424526 18.710745 0.47744924
26.321928 18.76977 0.65379268
13.004728 8.8255062 -1.3650664
26.205587 17.72711 -0.71851063
24.151485 17.685547 -0.45251709
73.491859 35.012707 1.7997339
73.312889 38.486725 2.320889
36.317616 18.43359 -0.17220925
60.271339 34.493435 2.3113813
74.006462 46.144909 3.4027812
32.924717 18.24567 0.033172399
30.005884 18.132942 0.2539289
28.375975 18.551397 0.47642821
26.419905 18.71476 0.65445811
13.128202 8.8489618 -1.3766692
26.291031 17.664743 -0.71956527
24.362053 17.722649 -0.45675403
73.514687 34.740681 1.7978538
73.309319 38.191528 2.3173125
36.55212 18.408575 -0.17405395
60.287247 34.251617 2.3081667
74.147659 45.910088 3.4026346
33.3167 18.326025 0.031409342
30.163837 18.09938 0.25408864
28.63047 18.589432 0.47829467
28.018339 19.716969 0.68057483
13.240366 8.8639936 -1.3868716
24.472681 17.685888 -0.45825458
73.54924 34.474766 1.796248
73.331299 37.910484 2.314502
37.074768 18.526369 -0.1788986
60.157703 33.928566 2.2999179
74.446449 45.772209 3.4093053
33.474213 18.275822 0.03088318
30.402601 18.113159 0.25437558
28.330555 18.268806 0.47489679
28.227583 19.732067 0.68307006
13.339483 8.8696127 -1.3954736
16.92564 9.1947603 -1.2559047
24.636887 17.687128 -0.46121156
73.575569 34.205601 1.7944853
73.386002 37.647026 2.3126626
37.243847 18.464937 -0.18005379
60.375675 33.801853 2.3037999
74.490974 45.477646 3.4050539
33.853371 18.344711 0.029193969
30.714016 18.168438 0.25477621
28.837698 18.467344 0.47915614
28.970772 20.117161 0.69457585
13.452058 8.8834543 -1.4056758
16.972006 9.1509857 -1.2574252
24.973785 17.81074 -0.4688468
73.571884 33.923267 1.7920963
73.364952 37.345512 2.308677
37.585125 18.487494 -0.18299788
74.643486 41.475403 2.7952573
74.479668 45.150127 3.3984566
34.060604 18.318695 0.028409351
30.982967 18.196596 0.25510916
29.729635 18.90621 0.48703676
35.602093 24.563662 0.80525327
13.553191 8.8890543 -1.4144779
17.106245 9.1539392 -1.2665479
25.160063 17.82478 -0.47237754
73.605331 33.658741 1.7905296
73.444435 37.095921 2.3076041
37.784962 18.438711 -0.18446989
44.11026 24.34086 1.7330098
74.530388 44.861275 3.3945713
34.375671 18.348936 0.02706166
31.152235 18.164742 0.25528511
29.501291 18.63138 0.48432481
13.66618 8.9016838 -1.4246802
17.221279 9.1458645 -1.273998
25.281307 17.791725 -0.47414285
73.603256 33.378624 1.7882186
73.423012 36.795967 2.3036697
38.206215 18.496157 -0.18823378
43.977818 24.08798 1.7257924
74.504585 44.527386 3.3874607
34.654137 18.357721 0.025907811
31.364866 18.157068 0.25552875
29.413897 18.447338 0.48295283
29.803541 20.282494 0.70538855
13.779376 8.9136972 -1.4348825
17.35232 9.1455135 -1.2828164
25.378019 17.740894 -0.47524619
73.63298 33.113644 1.7866129
73.439789 36.51614 2.3008597
38.43354 18.457533 -0.18998528
44.12355 23.987867 1.7282186
59.333809 35.201927 2.7343984
35.062267 18.432806 0.024080129
31.588144 18.154234 0.25578862
29.60927 18.440382 0.484245
36.353653 24.580187 0.81398648
13.8777 8.915431 -1.4432846
17.492369 9.1490402 -1.2923954
25.527184 17.72617 -0.47776186
73.658089 32.847179 1.7849286
73.451958 36.234814 2.2979467
38.864964 18.514978 -0.19384237
44.316586 23.912682 1.7322822
73.124863 43.080917 3.3168693
35.206917 18.367846 0.023627819
31.969732 18.240486 0.25629482
29.558144 18.280035 0.48322403
30.380108 20.397255 0.71290195
13.996322 8.9294462 -1.454087
17.64855 9.1600208 -1.3033425
25.740667 17.755013 -0.4819988
67.940819 30.044336 1.6602986
73.46666 35.955517 2.2951367
39.219398 18.533106 -0.19689818
49.002884 26.239864 1.890946
73.108047 42.762146 3.3104188
35.459873 18.358171 0.022612439
32.341728 18.318596 0.2567848
29.680233 18.226782 0.48383027
14.0933 8.9289789 -1.4622889
17.790787 9.1628084 -1.3130733
25.936459 17.770216 -0.48575014
73.646912 32.289001 1.7803068
73.50016 35.686035 2.2928884
39.523643 18.525352 -0.1994323
49.108047 26.097933 1.8917345
73.138374 42.471947 3.3060205
35.690006 18.335192 0.02171706
32.461876 18.252209 0.25688225
30.080709 18.342485 0.48703676
37.103653 24.581366 0.82263666
14.203892 8.9364586 -1.4720911
17.945646 9.1711454 -1.3238684
26.139193 17.788897 -0.48967814
73.720467 32.045544 1.7797194
73.521851 35.411556 2.2903337
39.969639 18.581753 -0.20341979
49.198635 25.948196 1.8920377
73.162369 42.179058 3.3014023
35.988052 18.345451 0.020470919
32.562695 18.174541 0.25694993
30.64982 18.62299 0.49207777
37.384109 24.682966 0.82665676
14.273604 8.9489355 -1.4786925
18.06673 9.197093 -1.3329911
26.441641 17.934353 -0.49700433
73.682617 31.891615 1.7778392
73.476456 35.247574 2.2874725
40.19109 18.608128 -0.20539488
49.267654 25.885752 1.8930081
74.034264 42.527252 3.3354886
36.44495 18.505949 0.01825553
32.937157 18.316067 0.25748593
30.930883 18.660759 0.49415159
37.7841 24.777245 0.83200765
14.323628 8.9176903 -1.4812932
18.216654 9.2012777 -1.34333
26.516083 17.863506 -0.49748993
73.668488 31.611139 1.775411
73.49295 34.971878 2.2848153
40.641815 18.662273 -0.20941965
36.760178 18.520794 0.0169263
33.246571 18.351858 0.25787571
31.047709 18.598402 0.49469399
37.952206 24.717415 0.8335048
18.3757 9.2090654 -1.3544292
26.678368 17.851374 -0.50031447
73.522903 34.703259 2.2825673
40.996834 18.669786 -0.21245684
74.730827 38.652229 2.7571077
36.964912 18.478458 0.01616938
33.45134 18.328156 0.2581031
30.999369 18.437454 0.49370492
38.222706 24.723059 0.83669311
18.522469 9.2097368 -1.3644642
26.937374 17.902649 -0.5056988
74.809143 31.54513 1.7954646
73.541061 34.429672 2.2800124
41.543636 18.761766 -0.21745054
74.732719 38.356117 2.7530441
74.628624 41.938328 3.3437717
37.508495 18.602743 0.01366785
33.714245 18.334894 0.25841981
31.177736 18.411079 0.49482161
38.517155 24.742416 0.84026963
18.569204 9.160305 -1.3659846
27.03018 17.842207 -0.50666982
75.524162 31.567335 1.8085464
73.543686 34.149609 2.2770488
41.711853 18.680277 -0.21856852
74.815422 38.102119 2.7517705
74.679741 41.658875 3.3404
37.792927 18.59594 0.01250479
33.947613 18.324013 0.25869054
31.566824 18.507006 0.49788451
38.753124 24.722473 0.84287578
13.641503 8.9464197 -1.320287
27.211449 17.83951 -0.50997984
75.650688 31.34136 1.809134
73.567101 33.879879 2.2746985
42.048096 18.672665 -0.22140078
74.836624 37.817318 2.7484345
74.659912 41.340721 3.3340957
37.980606 18.540197 0.01184016
34.198875 18.321287 0.25898829
31.761408 18.487133 0.49914479
47.365364 30.014462 0.98299682
13.744543 8.9525452 -1.3287158
27.523594 17.92107 -0.51673239
75.658127 31.066368 1.8072147
73.596794 33.613693 2.2725525
42.507294 18.717207 -0.22548144
74.863907 37.536373 2.7453415
44.097179 24.224649 2.0493753
38.337555 18.565308 0.01030786
34.510456 18.349134 0.25937811
32.714939 18.903946 0.50739229
47.48312 29.880421 0.98338497
13.851102 8.9602747 -1.3375193
23.219364 9.489274 -1.0865663
27.697235 17.910601 -0.51982176
75.670143 30.793865 1.8054131
73.610985 33.341022 2.2699974
42.897556 18.728586 -0.22885402
74.861526 37.241352 2.7412777
44.183594 24.091726 2.0498152
38.48225 18.48628 0.0098648099
34.803116 18.364914 0.25973815
32.482613 18.634098 0.50471222
47.46994 29.664297 0.98163831
13.947797 8.9609537 -1.345199
23.387962 9.4723768 -1.0943128
27.889574 17.911133 -0.52339667
66.600464 26.862808 1.6118487
73.618713 33.06617 2.2672894
43.339672 18.759983 -0.23274834
74.854431 36.944988 2.7370927
44.287178 23.968046 2.050988
39.065681 18.615341 0.00717866
35.126308 18.394842 0.2601442
32.662685 18.601158 0.50582892
29.715975 18.428686 0.69036168
14.059725 8.9707766 -1.3545644
23.621584 9.480484 -1.1056744
28.061964 17.897711 -0.52644193
49.373005 19.7414 1.2467319
67.869484 30.225761 2.1035271
43.813641 18.802214 -0.23695944
73.465355 35.973415 2.6862671
48.935352 26.28825 2.241431
39.400688 18.623125 0.0057663601
35.345356 18.368437 0.26039052
32.851585 18.572189 0.50702536
14.158411 8.9714375 -1.3624314
23.862911 9.4901628 -1.1174492
28.280132 17.912308 -0.53067881
49.250698 19.513371 1.2428544
67.936676 30.000284 2.1027606
44.133755 18.775801 -0.23960535
73.471893 35.690952 2.6826885
73.293503 39.091938 3.2506762
39.823078 18.669683 0.0039109699
35.633888 18.376633 0.26074243
33.007484 18.523609 0.50791872
47.489914 29.05785 0.97745186
14.257247 8.9715528 -1.3702983
24.100822 9.496933 -1.1290174
28.431017 17.883043 -0.53315032
49.281986 19.346838 1.2422277
73.652412 32.250462 2.259625
44.538895 18.783314 -0.24310838
73.495422 35.417404 2.6797166
49.134903 25.998947 2.242897
40.202633 18.693523 0.00227714
35.897923 18.370388 0.26105645
33.692974 18.768805 0.51364571
31.513231 19.136055 0.71672797
14.356212 8.9711475 -1.3781652
24.37809 9.51754 -1.1427547
28.683676 17.91667 -0.53826982
49.426403 19.224508 1.2439902
73.70018 31.995823 2.2581432
44.903912 18.771515 -0.24620147
73.490875 35.13121 2.6758349
49.288864 25.882599 2.2459023
40.446457 18.65246 0.00133559
36.23711 18.40078 0.26148415
33.865864 18.795345 0.51495385
31.403008 19.001539 0.71445453
14.461474 9.0055666 -1.3882798
24.5867 9.5542841 -1.1534965
28.800013 17.926605 -0.54056484
75.709702 29.295828 1.7953079
73.6586 31.840328 2.2555885
45.020096 18.737122 -0.24707721
74.352898 35.399605 2.7029462
49.660545 25.97854 2.2596102
40.697495 18.690613 0.00020944
36.531799 18.478514 0.26188749
34.399624 18.950064 0.51927698
31.496817 18.92342 0.71500903
14.562446 9.0052357 -1.3963342
24.872053 9.5750599 -1.1676469
18.360668 9.2202225 -1.2182907
29.044889 17.952883 -0.54546374
75.715469 29.024958 1.7935063
73.690269 31.579617 2.2536979
45.030682 18.575748 -0.24659276
49.82349 25.864813 2.2629824
41.014534 18.680239 -0.00110133
36.830906 18.484926 0.26225296
34.227276 18.71541 0.51717126
31.65053 18.8808 0.7165339
14.682208 9.0158501 -1.4064487
25.099899 9.5721292 -1.1785954
18.484127 9.2097759 -1.2256525
29.314056 17.99246 -0.55098051
74.769791 31.764971 2.2809319
28.898033 10.55947 -0.29397118
45.192455 18.476641 -0.24763621
74.943207 35.104641 2.7153192
49.838772 25.674273 2.2602699
41.399353 18.698477 -0.00275362
37.275375 18.561945 0.26283765
34.401962 18.670664 0.51822412
31.651215 18.746571 0.71559125
14.79199 9.019557 -1.4154396
18.634521 9.2119312 -1.2350979
29.47455 17.963825 -0.55367273
75.0952 28.247587 1.7767427
74.931862 31.556301 2.2826693
28.763662 10.408208 -0.29106879
45.285496 18.348846 -0.24799028
74.913513 34.804192 2.710649
41.720806 18.685883 -0.0040828399
37.586266 18.569803 0.26321936
34.467487 18.566288 0.51828796
31.813334 18.707943 0.71725476
14.890025 9.0154333 -1.4231193
18.792265 9.2167635 -1.2450988
29.674461 17.958214 -0.55737996
75.670807 28.1929 1.7869264
75.602516 31.559698 2.2985091
45.467228 18.256491 -0.24923868
74.986153 34.551964 2.7094359
49.378948 25.0457 2.2347603
42.006001 18.655254 -0.0052274498
37.888577 18.571507 0.2635875
34.853821 18.63307 0.52125514
31.9272 18.640205 0.71814197
14.995005 9.0148888 -1.4315482
18.957396 9.2241869 -1.2556555
29.980854 18.015436 -0.56382358
75.612633 31.285288 2.2960565
45.672989 18.172775 -0.25072932
75.007057 34.276344 2.7065246
49.423481 24.873343 2.2333674
42.503811 18.716379 -0.0074428199
38.131939 18.542574 0.26386634
35.219688 18.686384 0.52403086
47.365757 27.469076 0.96469843
15.106952 9.0178719 -1.4407263
19.122755 9.2306728 -1.2662121
30.20207 18.01964 -0.56806046
28.613207 10.47348 0.80202723
75.623604 31.011921 2.2936549
45.774494 18.046835 -0.25117654
74.994156 33.986122 2.7025216
49.417355 24.675959 2.2299223
42.881397 18.721832 -0.0090489797
38.687027 18.662832 0.26461345
35.264061 18.568192 0.52390325
32.937721 18.954529 0.73244792
15.232764 9.0283756 -1.4514029
19.286547 9.2353373 -1.2766298
30.397823 18.007311 -0.57163531
28.736238 10.41616 0.80390728
75.637329 30.740273 2.2913556
45.903603 17.931347 -0.25190324
75.02034 33.714302 2.6998527
49.290524 24.419329 2.2215657
43.411823 18.79093 -0.01142128
39.091759 18.707157 0.2651332
35.932178 18.775545 0.52939099
32.96933 18.835072 0.73200434
15.350213 9.0331249 -1.4611429
19.437943 9.2330637 -1.2860752
30.671312 18.039616 -0.5771963
29.013559 10.413445 0.808999
66.587921 26.815636 2.0393505
67.769806 30.203157 2.4555495
49.361607 24.261721 2.2213457
43.906326 18.841145 -0.01360896
39.287605 18.649529 0.26533893
36.419003 18.884169 0.53323555
34.645466 19.650002 0.75778842
15.39569 8.9949274 -1.4630159
19.614763 9.2418652 -1.2974652
30.890068 18.038073 -0.5813449
49.430721 19.718781 1.5648739
67.820457 29.970736 2.4540937
73.474098 35.841187 3.202369
44.107033 18.76333 -0.01431973
39.660755 18.674452 0.26580995
36.529732 18.796171 0.53369814
34.578121 19.468382 0.75573677
19.780994 9.244566 -1.3080219
31.091824 18.025291 -0.58505219
49.278637 19.478771 1.5589979
73.649918 32.268291 2.6440537
49.710934 24.046946 2.2294092
44.696609 18.8482 -0.016978171
39.885891 18.627726 0.26605898
36.813122 18.795738 0.53570819
34.890411 19.500288 0.75972915
19.952869 9.2488174 -1.3189951
31.326733 18.030363 -0.58959794
81.992073 28.508886 1.9055246
49.25771 19.291706 1.5567496
73.670273 32.001682 2.6413851
50.033062 24.009195 2.2394516
45.098919 18.850937 -0.018695099
40.307083 18.670635 0.2666004
36.898758 18.693541 0.5359475
33.734829 18.714558 0.74043268
31.463051 17.977552 -0.59162819
83.629913 28.783691 1.9376025
49.394478 19.166563 1.5588446
73.689644 31.735332 2.6387165
51.12402 24.336006 2.2807217
45.501659 18.85137 -0.020412009
40.750721 18.721146 0.26717427
37.346001 18.84614 0.53968042
35.61702 19.687248 0.76979321
31.492985 17.929102 -0.5916723
84.079903 28.79081 1.9459844
73.653038 31.582548 2.6358657
51.201908 24.27453 2.2823343
45.806751 18.893356 -0.02178739
40.880074 18.70294 0.26732317
37.392502 18.722467 0.53956872
35.426308 19.436584 0.76580089
49.413231 16.758268 1.2272266
75.69101 28.975544 2.276078
74.686607 31.748001 2.6666765
74.71122 35.146271 3.2322769
48.630421 19.877783 -0.035568882
41.568634 18.860708 0.26825979
37.76825 18.762203 0.54239237
35.655731 19.417124 0.76846242
68.554558 22.999504 1.6215622
75.319954 28.562374 2.2634573
28.760679 10.450244 -0.077851012
74.855995 31.5427 2.6689816
74.986046 34.98835 3.2389474
48.770493 19.756416 -0.03595658
41.819138 18.816307 0.26854402
38.062088 18.759129 0.54448217
36.951145 19.973322 0.78792524
25.632969 9.6125393 -1.0243493
75.098663 28.208786 2.2549751
75.641022 31.593752 2.6915436
74.983162 34.700504 3.2344027
48.791485 19.586718 -0.0357535
42.051517 18.762341 0.26880118
37.89259 18.528038 0.54245621
34.746475 18.639011 0.75224346
25.906437 9.6226358 -1.0360608
75.659065 28.148563 2.2678514
76.401222 31.62952 2.7132568
75.040955 34.441422 3.2323501
48.724525 19.382402 -0.035116579
42.56007 18.829456 0.26946712
38.188206 18.523962 0.54456192
37.404129 19.915773 0.79308206
26.182096 9.6317883 -1.0478623
66.769379 21.70343 1.5803974
76.968193 31.581163 2.7286017
75.04512 34.15826 3.2281718
48.736794 19.210175 -0.03487657
42.831425 18.788963 0.26978111
38.498581 18.525156 0.54679531
38.447502 20.317324 0.8084693
26.491844 9.6516581 -1.0612854
66.761078 21.46912 1.5788308
28.531776 10.39422 0.98084772
77.924522 31.687611 2.7566833
67.724319 30.566774 2.9292395
48.744728 19.036636 -0.034618109
43.528324 18.932266 0.27072316
38.953781 18.593397 0.55030483
36.937183 19.369793 0.78382194
26.760641 9.6547031 -1.0727266
66.814857 21.255018 1.5785567
28.878277 10.418097 0.98938072
49.358162 19.901052 1.8191347
67.670464 30.286837 2.9232285
48.692364 18.840143 -0.034064259
43.681236 18.835854 0.27086121
39.277786 18.596584 0.55264992
37.221298 19.370121 0.78731525
27.056047 9.6656055 -1.085429
66.812614 21.023436 1.5771465
48.723499 17.423582 1.5272162
48.788548 16.712126 -0.27323818
49.468716 19.765163 1.8207117
67.533295 29.971066 2.9139192
48.639236 18.644196 -0.033510432
44.166744 18.881163 0.27148926
39.488117 18.544424 0.55398995
37.02618 19.120804 0.78332293
27.363081 9.6787539 -1.0986719
19.824057 9.2966871 -1.1910126
66.813416 20.79327 1.5758147
48.806728 16.547203 -0.27290279
49.441322 19.574385 1.8178005
73.584457 32.382748 3.1526692
48.684475 18.486343 -0.03344582
44.811291 18.990803 0.27235007
39.841763 18.557753 0.5565902
37.198147 19.061924 0.78506958
27.600708 9.6655703 -1.1085815
19.992588 9.299017 -1.2008576
48.805382 16.375961 -0.27238107
49.227093 19.311062 1.8088242
73.583252 32.106636 3.1485643
48.716095 18.323471 -0.033316579
45.00161 18.905006 0.27254227
40.264912 18.600834 0.55979669
38.405495 19.529385 0.80292434
20.154087 9.2970238 -1.2101912
82.032997 28.484621 2.4240518
48.816753 16.209261 -0.27198976
49.235352 19.136028 1.8071258
73.689278 31.877638 3.1487839
48.74157 18.158443 -0.033159658
45.538887 18.962883 0.2732434
40.548508 18.65444 0.56203002
38.168598 19.333328 0.7987656
20.32835 9.3384895 -1.2214425
55.001888 16.649509 1.3308239
83.963409 29.007851 2.4750454
48.794678 16.116856 -0.27152389
76.237572 29.477819 2.6843867
73.654831 31.725451 3.145412
48.7794 18.085333 -0.033205811
45.631413 18.9174 0.27333543
40.969086 18.691957 0.56520462
40.194061 20.20236 0.82926285
20.517506 9.3472166 -1.2326939
98.719711 29.523506 2.223484
68.444641 23.400877 2.0534019
48.852676 15.965985 -0.27159846
76.251389 29.208172 2.6818397
73.706337 31.473495 3.1435063
48.743969 17.898275 -0.032753501
49.152931 20.198732 0.27840292
41.4067 18.734428 0.56852275
38.058521 18.977882 0.79518914
20.708736 9.3556652 -1.2440732
98.215561 29.037077 2.211303
49.41114 16.712585 1.5378442
49.427704 15.982529 -0.27674121
48.333584 18.350525 1.7730398
74.772842 31.651924 3.1820638
28.827751 10.493918 0.065313831
49.417992 20.126549 0.278698
41.771976 18.741623 0.57120281
38.461994 19.028704 0.80051225
20.902039 9.3638182 -1.2555803
50.039501 16.00721 -0.28223801
75.146477 31.532192 3.1929862
48.928856 17.618065 -0.033113491
49.338192 19.9135 0.27848956
42.018906 18.693913 0.57284594
40.359341 19.811182 0.82890242
21.095598 9.3708382 -1.2670875
42.396805 11.66049 -0.5093056
50.646225 16.026369 -0.28767884
75.627655 28.155144 2.652848
75.887299 31.563242 3.2184958
49.015995 17.475653 -0.033270419
49.259415 19.701874 0.27828383
42.456295 18.728701 0.57614815
40.180527 19.566835 0.82518739
21.267479 9.367115 -1.2770603
41.746113 11.341024 -0.49769592
54.822113 17.160717 -0.32796371
28.931578 10.68459 1.140204
48.930382 20.161171 2.1450367
49.29512 17.400696 -0.034368891
49.269012 19.526371 0.27820802
42.985943 18.800938 0.58024794
40.423611 19.528482 0.82798755
21.390131 9.3408928 -1.2835809
41.625065 11.167947 -0.4950543
54.566299 16.89246 -0.32494515
28.833538 10.545697 1.1359583
49.084118 20.044434 2.1486285
49.409969 17.26684 -0.03466427
49.248211 19.339296 0.27808893
43.332939 18.790545 0.58275253
40.812897 19.558865 0.83303344
90.466492 29.046003 2.633034
41.708282 11.049885 -0.49586964
54.823692 16.78367 -0.32693887
28.907894 10.469995 1.1372926
49.328384 19.963688 2.1558123
49.435616 17.101719 -0.0345258
48.854031 19.007303 0.27742842
43.680298 18.778156 0.58525705
40.364964 19.188124 0.82521504
60.176765 16.574799 1.427802
98.07402 31.151253 2.8346074
37.526535 9.8186436 -0.42480898
54.918259 16.624104 -0.32734883
28.901117 10.36498 1.136019
49.463196 19.837654 2.1586711
49.402054 16.916553 -0.034101188
48.704536 18.773048 0.27712524
44.169685 18.824095 0.58898997
41.200806 19.42757 0.83710903
102.69163 32.264412 2.9557045
37.508781 9.6882401 -0.42399365
59.159817 17.707441 -0.36809951
28.790318 10.223421 1.1314094
49.309071 16.71192 -0.033390429
48.666134 18.582808 0.27698445
44.545547 18.818945 0.59173381
41.591232 19.452429 0.84215492
27.588139 9.7049665 -0.97270924
41.690563 11.210027 1.0508175
102.66839 31.903065 2.9523833
37.517715 9.5649424 -0.42363495
59.161469 17.505596 -0.36757779
49.188961 19.369593 2.1429842
49.310127 16.539793 -0.033141199
48.653198 18.402914 0.27688161
45.036209 18.859447 0.59546679
41.80267 19.391611 0.84445608
27.890329 9.7126513 -0.98434335
41.679184 11.066716 1.0498774
102.70312 31.560398 2.9506462
37.508781 9.4373035 -0.42298269
59.444553 17.386564 -0.36979508
81.973465 28.479364 2.8373494
49.277481 19.22588 2.1440837
49.747227 16.512516 -0.03501505
48.673313 18.235929 0.27682745
45.442581 18.861792 0.59846586
42.039577 19.341331 0.84714538
28.21364 9.7256536 -0.99686617
37.511894 9.8368378 0.96480626
37.516899 9.314106 -0.42262399
59.612244 17.232498 -0.37089443
84.047691 28.903667 2.9010334
48.469093 18.734715 2.1099241
49.880589 16.382904 -0.03541195
48.713505 18.07662 0.27680311
49.2533 20.260036 0.63081777
41.880043 19.108604 0.84379065
28.542967 9.7386761 -1.0096312
37.509693 9.7104521 0.96414042
55.06739 16.531462 1.674168
37.51878 9.1895628 -0.42216742
59.714153 17.058901 -0.3713603
68.446205 23.303314 2.3981733
48.645275 18.627447 2.1145422
50.049759 16.264395 -0.035984259
48.770054 17.923506 0.27680311
49.294319 20.186434 0.63089752
42.252209 19.198521 0.8490029
28.859196 9.795701 -1.022477
37.507469 9.6470528 0.96378785
37.504009 9.1235495 -0.42167819
59.838974 16.99299 -0.37231058
49.417458 16.745823 1.7875354
48.790245 18.595207 2.1190872
50.198959 16.225681 -0.036584269
28.775167 10.512539 0.24794102
49.463139 20.074299 0.63180685
43.076057 19.410353 0.8606196
29.202478 9.8097296 -1.0358077
37.510448 9.5223083 0.96323955
98.379028 29.050413 2.8263297
37.530548 9.0052242 -0.42164564
60.038383 16.846052 -0.37372673
48.45956 18.294817 2.1038401
50.499268 16.147581 -0.037793491
28.823086 10.427549 0.24796267
49.64473 19.966518 0.63282782
43.797611 19.570635 0.87065601
37.516895 9.3986111 0.96276957
100.24692 29.260412 2.8736446
37.521671 8.8785591 -0.42102605
60.060181 16.648804 -0.37342858
48.462517 18.122169 2.1017141
53.16256 16.813885 -0.0504396
49.112595 17.612955 0.27709544
49.331863 19.661058 0.62960535
44.308552 19.632462 0.87747627
37.478291 9.2639446 0.96139872
101.78284 29.362398 2.9120686
37.527958 8.7556429 -0.42066723
60.106403 16.458433 -0.37337267
48.566059 17.987194 2.1035469
49.07724 17.426397 0.27696553
49.324539 19.478842 0.62901515
37.526638 9.1508884 0.96179038
103.27039 29.440804 2.9491644
37.53968 8.6341324 -0.4204064
41.611111 11.245319 -0.19434543
28.871105 10.578592 1.3318058
54.591415 16.888536 -0.056836519
49.310959 17.335239 0.27722269
49.409706 19.333263 0.62922251
44.469517 19.370487 0.87805849
28.710213 10.445586 -0.84362674
21.637413 9.402482 -1.1497558
37.527973 9.0264273 0.96124196
37.547115 8.5117559 -0.42008024
41.700325 11.129019 -0.19486715
90.462105 29.056137 3.0871725
28.851603 10.468713 1.3297533
49.321728 17.165108 0.27716041
49.21283 19.078297 0.62702101
45.009224 19.437866 0.88529468
21.82814 9.4041529 -1.159891
37.552258 8.9075537 0.9611637
60.089085 16.711643 1.7987398
37.556107 8.3898325 -0.41978681
37.50634 9.8808708 -0.1541165
98.065887 31.15663 3.3263204
28.93136 10.394947 1.3315859
49.810261 17.160109 0.27778304
48.81316 18.747417 0.6230967
49.589672 21.234221 0.95346987
22.052126 9.4188681 -1.1720992
37.548897 8.7822609 0.96053702
60.216473 16.543459 1.8007326
37.580322 8.2713671 -0.41975415
37.510101 9.7559137 -0.15385561
99.328629 31.214252 3.3633783
49.788219 16.977669 0.27767476
48.791416 18.563442 0.62241071
49.610115 21.058777 0.95277679
22.243334 9.418231 -1.1822344
37.554863 8.6593342 0.96010613
37.590485 8.1498928 -0.41949326
37.590919 9.6509981 -0.15434007
99.456749 30.911556 3.3643489
48.759678 17.192848 2.1003213
49.394169 16.670025 0.27703589
48.780239 18.384016 0.62182051
49.600464 20.870989 0.95164007
22.478916 9.4350777 -1.1951336
37.564331 8.5373402 0.95975369
41.719955 11.17213 1.3085768
37.588516 8.025938 -0.41903669
37.510574 9.5047874 -0.15327801
99.463554 30.57139 3.3614984
48.826656 17.044205 2.1008346
49.973568 16.691175 0.27778846
48.796516 18.215321 0.62146956
49.6418 20.705055 0.9512797
22.679815 9.4359274 -1.2058445
37.569496 8.4145012 0.95932281
41.693001 11.024623 1.3069417
37.623333 7.9098682 -0.41919971
37.472347 9.3698807 -0.15262581
99.490234 30.237875 3.3593149
49.150043 16.984222 2.1113169
49.826393 16.468107 0.27750421
48.834751 18.054995 0.62131
49.717693 20.553572 0.951446
22.925224 9.4539108 -1.2193197
37.552784 8.2869692 0.95846117
37.532143 9.7956285 1.1961148
37.626453 7.7871776 -0.418841
37.49966 9.2516193 -0.15260719
98.177475 29.50264 3.3147361
49.660728 16.986477 2.1290565
49.761951 16.273499 0.2773391
48.846161 17.972036 0.62116647
49.812786 20.501341 0.95238864
23.102526 9.4847822 -1.2294548
37.585297 8.2322235 0.95885283
37.551357 9.7376528 1.1962169
37.709175 7.7424817 -0.42001504
37.469482 9.1817122 -0.15217866
98.645134 29.47415 3.3280795
49.736542 16.925194 2.1309624
49.861622 16.219458 0.27744466
48.862907 17.804142 0.62083143
49.923229 20.363663 0.95308173
23.243126 9.4574251 -1.2363651
37.595333 8.1107483 0.95853949
38.67234 7.8130541 -0.43563604
37.494251 9.0630169 -0.15214138
98.240639 29.017576 3.3123705
49.418282 16.643652 2.1165948
50.325394 16.195902 0.27803206
28.791494 10.39977 0.45018613
50.007343 20.214989 0.95338678
37.610844 7.9905362 0.95834363
39.467609 7.8442335 -0.44845235
37.493366 8.9382124 -0.15186189
49.328136 16.440859 2.1110971
64.325806 17.810534 -0.10115325
52.929329 16.851986 0.28165948
49.16782 17.566006 0.62247455
49.465538 19.815075 0.94434851
37.629887 7.8711214 0.95822614
39.955471 9.9618235 1.2571744
37.507633 8.8171749 -0.15173145
101.7537 29.360529 3.4176006
49.455448 16.310898 2.1140292
64.470192 17.632612 -0.10157788
49.341572 17.453396 0.62347955
49.261803 19.553923 0.94038385
30.275572 9.8983812 -0.88846707
37.638763 7.749639 0.9579128
37.680454 9.267417 1.1964724
41.397652 7.9565167 -0.47969431
37.515667 8.6947565 -0.15154512
103.26239 29.444344 3.4623008
41.674061 11.266791 0.0076586599
54.511917 16.980133 0.28375471
49.518867 17.341215 0.62451649
49.306236 19.392479 0.94013429
30.584106 9.8932657 -0.89852357
28.804634 10.505896 -0.68985891
37.684132 9.1428585 1.1958083
