# .PCD v0.7 - Point Cloud Data file format
VERSION 0.7
FIELDS x y z
SIZE 4 4 4
TYPE F F F
COUNT 1 1 1
WIDTH 1503
HEIGHT 1
VIEWPOINT 0 0 0 1 0 0 0
POINTS 1503
DATA ascii
50.724823 0.68751329 1.5012594
31.074375 -0.0057367198 -0.082267061
44.448792 2.2397144 1.5547557
33.64727 2.4906392 0.25214228
37.896309 5.6023102 0.73668981
50.566792 0.52641547 1.4971718
31.076202 -0.10335873 -0.082285687
45.000763 2.1255057 1.5713135
32.744194 2.7647595 1.4092878
37.866226 5.476315 0.73602444
31.087727 -0.20106326 -0.082397513
49.143406 2.1640575 1.6969224
32.734787 2.6603966 1.408628
32.581169 0.12520303 1.037462
31.102936 -0.29886156 -0.082546547
32.533417 0.02278013 1.0362357
31.127846 -0.3968766 -0.08278881
33.94862 2.5454047 1.4526834
32.579315 -0.079496063 1.037411
31.118446 -0.49453914 -0.082714267
33.968407 2.4396141 1.4531233
31.225597 0.64958119 0.062756933
45.531479 -1.9893081 1.0978965
32.610893 -0.18199325 1.0382285
44.585213 3.0695012 1.8431722
31.157495 0.55030829 0.063079998
44.277847 -2.0035479 1.0733778
43.816277 2.946928 1.8147303
31.154322 0.50127786 0.06309846
44.087593 -2.1336319 1.0697745
32.465725 -0.33432049 1.0345496
31.313538 -0.74352127 -0.084577583
43.873188 2.8123662 1.8164896
31.197737 0.40391594 0.062904611
32.757118 2.8179872 0.46826047
28.112249 3.8367388 -0.41804826
44.038742 -2.2699318 1.068952
51.663544 1.2175021 1.7723726
44.11322 2.6887705 1.8249928
31.162855 0.30558658 0.063070767
32.795708 2.7175236 0.46849978
43.987461 -2.4058349 1.0680902
50.705746 1.0360502 1.7431993
44.853703 2.5929365 1.8518952
31.179661 0.20778333 0.062996916
28.272596 3.6779494 -0.42109352
44.03159 -2.5470593 1.0691086
28.691496 -2.0285077 -0.26129442
50.233032 0.8687529 1.7287643
45.023273 2.4609275 1.8578328
31.178158 0.10981437 0.063006148
31.557766 2.4163954 0.45846558
44.003414 -2.6841385 1.0687169
27.91124 -2.0607786 -0.24864109
50.643284 0.7165066 1.7411371
46.02676 2.3713567 1.8944113
31.028349 0.01193875 0.063698463
44.042652 -2.8254583 1.069657
26.895824 -2.0698354 -0.23213963
47.640976 2.3053989 1.9534209
33.61734 2.3600435 0.47481704
28.548164 3.4407384 -0.42647791
26.135763 -2.0932341 -0.21981244
48.113186 2.1770062 1.9705006
31.113813 -0.18359946 0.063301533
28.771303 3.376152 -0.43120027
24.82983 -2.0658762 -0.19854964
31.123081 -0.28145301 0.063255377
44.071896 -3.2447276 1.0707928
24.737558 -2.1363783 -0.19714738
31.14604 -0.3795341 0.063144609
28.966812 3.2148871 -0.43508404
24.734709 -2.2144392 -0.19721259
69.179512 2.4885135 2.742975
31.136696 -0.47724512 0.063181527
31.293762 0.68829942 0.24884245
28.853525 3.1104774 -0.43234771
27.070881 -2.1540833 0.73712713
46.900372 -1.9458784 1.4044328
24.745546 -2.2938094 -0.19750609
31.149042 -0.57532573 0.063116908
31.273773 0.58955687 0.24881268
28.855198 3.0189822 -0.43217117
26.049725 -2.1542213 0.71719104
44.49913 -1.98763 1.3431687
24.718315 -2.3696048 -0.19717999
31.245054 -0.67537367 0.062664613
28.963326 2.9843776 -0.43446618
25.295174 -2.1311028 0.70242494
44.164402 -2.0424273 1.3346868
24.726501 -2.4096267 -0.19737567
31.233955 -0.72423911 0.062710762
29.040199 2.9001961 -0.43596673
24.774462 -2.1651006 0.69231987
44.203709 -2.1833937 1.335862
24.71085 -2.4864793 -0.1972452
31.057455 0.34130338 0.24851489
32.771221 2.7535231 0.66152787
29.106878 2.8145819 -0.43724662
24.731695 -2.2396374 0.69161481
44.128738 -2.3187256 1.3341248
24.712866 -2.5651414 -0.19740824
51.38615 1.1146728 2.0891793
31.120371 0.24427041 0.2485988
24.698656 -2.3148704 0.69110566
44.119247 -2.4572387 1.3340737
24.710649 -2.6434104 -0.19750609
51.135616 0.94839734 2.0798695
31.012989 0.14590326 0.24845263
24.713154 -2.3945961 0.69153649
44.089352 -2.5945518 1.3335117
24.71216 -2.7221334 -0.19766916
28.497396 -2.0701027 -0.058956999
51.122353 0.7874912 2.0792832
31.131292 0.048755862 0.24861234
33.956314 2.5319755 0.67766374
24.683624 -2.4700096 0.69110566
44.100937 -2.7342751 1.3340226
24.71739 -2.8013463 -0.19789743
27.032896 -2.0504472 -0.045336168
31.12929 -0.04904459 0.24860965
33.638981 2.4018211 0.67314458
24.606134 -2.540283 0.68973482
44.098118 -2.8731947 1.3341759
24.736277 -2.8822536 -0.19835399
26.073263 -2.0609813 -0.036429539
31.148985 -0.14691733 0.24863672
24.508566 -2.6079574 0.68797231
44.104828 -3.0127997 1.3345847
24.731066 -2.9604299 -0.19841923
25.267324 -2.077971 -0.02895765
31.136366 -0.24468964 0.24862047
35.610977 2.3193438 0.70034266
24.555901 -2.6910982 0.68906897
44.123066 -3.1533227 1.3353
24.747444 -3.0413077 -0.19884317
24.909931 -2.1277483 -0.025678201
43.948925 2.7298603 0.81606591
24.67448 -2.7827041 0.69157565
44.154816 -3.2950237 1.336373
24.749672 -3.120553 -0.19903885
24.735773 -2.1913455 -0.024113029
31.286959 0.67129219 0.45562601
27.708267 -3.2162604 0.75157982
24.725866 -3.1964815 -0.19881056
24.716816 -2.2679601 -0.02400123
31.246918 0.5722639 0.45529097
44.220776 2.4680839 0.81961465
24.698202 -2.9426944 0.69239819
27.047903 -2.1995056 0.89832783
24.646326 -3.2648809 -0.19766916
24.703596 -2.3450384 -0.02394533
45.608639 -2.0042534 1.5895694
31.198824 -0.63726312 0.24871251
44.204632 2.3975244 0.81933743
24.685606 -2.9805193 0.69224149
25.906601 -2.148762 0.86915207
24.705853 -2.3844094 -0.02400123
44.477158 -2.0238912 1.5553015
31.245773 -0.68728495 0.24877748
44.225925 2.2593617 0.8195315
24.717791 -3.0632646 0.69306403
25.184544 -2.1692779 0.85080874
24.729712 -3.3946877 -0.19929974
24.70421 -2.4626024 -0.02405712
44.216999 -2.1511245 1.5475988
24.698126 -3.1396317 0.69286817
24.793224 -2.2144597 0.84094715
24.734762 -3.4746029 -0.19956063
44.152134 -2.2869923 1.5458399
47.129997 2.1126146 0.85964924
24.700039 -3.21877 0.69310319
24.778179 -2.2916105 0.84074283
24.789036 -3.5617456 -0.20063679
24.724052 -2.6215324 -0.02439253
44.136745 -2.4252458 1.5455974
24.711603 -3.2992852 0.69353402
24.762897 -2.3686888 0.84053838
24.712444 -3.6299465 -0.19956063
24.717682 -2.6994073 -0.02441116
44.09697 -2.5620189 1.544627
28.073893 -2.0187895 0.076999947
31.144144 0.032275692 0.45442954
24.713001 -3.3785403 0.69376904
24.743397 -2.4453046 0.84023178
24.770121 -3.7180262 -0.20070203
24.711069 -2.7772679 -0.0244298
44.096691 -2.7010341 1.5448695
27.341515 -2.0518095 0.080359943
31.158091 -0.065607607 0.45454121
26.203136 -3.6677475 0.72345775
24.699783 -2.5194118 0.83931208
24.747921 -2.8601193 -0.024858359
44.09198 -2.8398144 1.5449909
26.296194 -2.0554705 0.085169137
24.720974 -3.538029 0.69435656
24.723564 -2.6003087 0.84012961
24.730867 -2.9369178 -0.02478382
44.104771 -2.9798138 1.545658
25.570045 -2.0788383 0.088501453
33.554646 0.96878695 0.67098206
13.171165 -2.0983384 -0.9477213
24.761171 -3.6232557 0.69537491
24.725212 -2.6790338 0.84038508
24.731449 -3.0157979 -0.024877001
44.135078 -3.121202 1.5468711
24.684605 -2.0840366 0.092572197
24.7127 -2.7562573 0.84028292
24.747654 -3.0966799 -0.025119221
44.164925 -3.2628098 1.548084
24.827351 -2.1748209 0.091879882
38.187145 -5.8474579 0.96190786
24.707893 -2.8343327 0.84038508
24.725901 -3.1728969 -0.02500743
44.188343 -3.4041722 1.5491151
24.655092 -2.2376299 0.09264604
31.510906 0.61103213 0.6425364
38.136978 -5.9624333 0.96128118
24.700855 -2.9121728 0.84043622
24.715811 -3.2505598 -0.02500743
24.705679 -2.320559 0.092378363
13.520337 -2.1308813 -1.4727697
31.291283 -0.65592766 0.4556579
31.366701 0.50954247 0.64051253
38.046974 -6.0708241 0.95987111
24.685627 -2.9890437 0.84028292
24.683668 -3.3252761 -0.02480245
26.556156 -2.2033556 1.0129575
24.706228 -2.3989444 0.092341423
13.156399 -2.0940046 -1.4276779
31.242226 -0.70395797 0.45527506
38.047264 -6.1321783 0.96006703
24.688835 -3.0287814 0.84048724
24.688326 -3.3653853 -0.02489561
25.803747 -2.1810093 0.99015254
44.632351 -2.1217391 1.8428788
24.69845 -2.4373531 0.092359893
13.073367 -2.1227691 -1.4181204
31.932655 0.36869508 0.64833093
38.075161 -6.2594943 0.96100706
24.697441 -3.4456718 -0.025081949
25.058006 -2.1965356 0.96765083
44.509686 -2.2561438 1.8386273
24.692659 -2.5151377 0.092350647
13.072507 -2.164814 -1.4188555
31.807676 0.26721284 0.64658427
12.126007 -2.0051341 -0.4250102
38.045444 -6.377419 0.96081114
24.75658 -3.195014 0.84273553
24.716198 -3.5274518 -0.02536145
24.688614 -2.5931215 0.092332199
13.059773 -2.2048693 -1.4181204
38.094204 -6.5087452 0.96218199
24.768229 -3.2756341 0.8432976
24.68718 -3.6025019 -0.02519374
24.80888 -2.3316174 0.96049398
24.696253 -2.6724081 0.092258349
13.06647 -2.2482696 -1.4198358
33.606544 0.072631761 0.67150885
38.099182 -6.632865 0.96269119
24.751867 -3.3526306 0.8431443
24.843899 -3.7049406 -0.026777569
24.775566 -2.4070051 0.95970547
24.697668 -2.7510979 0.092212193
13.049569 -2.2875752 -1.4186105
33.666607 -0.03295894 0.67234057
38.147057 -6.7647905 0.96406204
24.776869 -3.4352798 0.844064
24.757938 -2.4838195 0.9594022
24.678972 -2.8275256 0.092258349
26.667854 -2.0604589 0.2426786
33.658337 -0.13869818 0.67222971
12.292479 -2.1921165 -0.43513232
13.597503 -2.1283653 -0.90150815
24.797632 -3.5175614 0.84488153
24.752005 -2.5617945 0.95946288
24.689829 -2.9074025 0.092166036
25.879711 -2.0821376 0.24161744
31.693962 -0.23169371 0.64500391
13.232372 -2.1145172 -0.87212592
24.79833 -3.5971575 0.84518814
24.731905 -2.6382577 0.95909905
24.666676 -2.9832578 0.092230663
24.866474 -2.0802791 0.24025041
11.708495 -2.1637406 -1.252947
31.82106 -0.33249474 0.64677835
12.292207 -2.2718785 -0.43585533
24.717535 -2.7152815 0.95891708
24.677025 -3.06322 0.09213835
24.758188 -2.1496725 0.24011236
32.371761 -0.43951118 0.65443039
12.795896 -2.1281478 -0.83741599
38.43222 -7.314899 0.97150385
24.724771 -2.7947328 0.9594022
44.536594 -3.381321 1.8422191
24.691086 -3.143786 0.092027582
24.699518 -2.2228353 0.24004197
13.369326 -2.1182277 -1.3771969
24.721828 -2.8730924 0.95958418
28.01368 -2.2250712 1.2347517
24.667206 -3.2195132 0.092092201
24.694403 -2.3006029 0.24004468
10.7956 -2.0984223 -1.1407075
13.142926 -2.1251373 -1.3510044
31.39863 -0.62441754 0.64098382
25.690407 -2.1014123 -0.67907423
45.390751 -8.9400587 1.11137
39.488129 -6.2199535 1.2264146
24.714664 -2.9509833 0.95964485
27.518509 -2.2732146 1.2167922
24.688684 -3.3012662 0.091944501
24.712938 -2.3806376 0.24007988
10.770875 -2.1111271 -1.1380118
13.017994 -2.1261687 -1.3365049
25.452011 -2.1224034 -0.67094648
45.284485 -8.9929895 1.1095291
39.267014 -6.2484913 1.2209474
24.727859 -2.991981 0.96019071
26.106722 -2.1992204 1.1649666
24.673561 -3.3386915 0.091990657
24.691252 -2.4177182 0.2400555
10.591019 -2.1100204 -1.116201
25.447208 -2.202523 -0.67101538
45.261887 -9.1364002 1.1096467
39.322189 -6.3839483 1.2228889
24.734205 -3.0716386 0.96067595
26.087736 -2.2801936 1.1645267
24.702564 -3.4217186 0.091806047
24.693487 -2.4962711 0.24006905
10.362666 -2.0978391 -1.0882638
45.229046 -9.2777443 1.1095684
24.734344 -3.1506014 0.96097916
26.972269 -2.4420204 1.1973667
24.703573 -3.501003 0.091750652
24.681541 -2.5734251 0.24006362
10.381287 -2.1356454 -1.0914496
45.242733 -9.4287891 1.11043
24.728292 -3.2288129 0.96110052
27.034119 -2.5332041 1.1999323
24.730053 -3.5840838 0.091575272
24.685268 -2.652221 0.24007988
12.311237 -2.1712866 -1.2553546
45.271564 -9.5833321 1.111605
39.490841 -6.7937737 1.2288672
24.817078 -3.3198388 0.96413302
27.026028 -2.6181216 1.1999323
24.736475 -3.6644142 0.091492198
24.662897 -2.7282343 0.24006093
45.272518 -9.7322512 1.1122317
39.483093 -6.9202104 1.2292249
24.858019 -3.4048939 0.96570998
27.140984 -2.7152305 1.2044772
24.670105 -2.8074937 0.24008258
27.266434 -2.1143067 0.42415145
45.304222 -9.8881102 1.1134851
39.506435 -7.052268 1.2304001
24.884808 -3.4882829 0.96686238
27.691027 -2.8576128 1.2250756
24.667122 -2.885674 0.2400907
13.634239 -2.5344498 -1.416252
26.249052 -2.1174297 0.41606349
25.134787 -2.6539218 -0.66178554
13.537226 -2.1188636 -0.83200645
45.354923 -10.048601 1.1151301
39.39555 -7.1603141 1.2281008
25.04586 -3.5913062 0.972139
27.864775 -2.9638715 1.2318195
24.648005 -2.961971 0.24007717
13.620353 -2.5761735 -1.4155504
25.453131 -2.1329443 0.40974623
44.439808 -2.0610039 0.82235938
24.979259 -2.7170291 -0.65668845
13.55216 -2.1648829 -0.83367896
39.248985 -7.261209 1.2248816
25.103672 -3.680192 0.97426188
27.984476 -3.0654223 1.2365842
24.656446 -3.0415752 0.24010153
24.796833 -2.1557508 0.40454566
44.487049 -2.2032449 0.82310796
10.403893 -2.3447864 -0.34093422
24.920938 -2.7899823 -0.65496653
28.159861 -2.0963192 -0.61884487
51.08802 -11.659436 1.2316134
46.553745 -8.7590227 1.4154184
27.970739 -3.1528797 1.2364377
24.652719 -3.1197677 0.24010965
10.696402 -2.098489 -1.0668616
24.636578 -2.2196615 0.40331733
44.419994 -2.3398724 0.82227629
24.892191 -2.8659935 -0.65427768
28.135197 -2.1833665 -0.61831754
50.607029 -11.716819 1.2226832
46.272648 -8.856884 1.4088269
38.825459 -5.9556432 1.3962131
28.014307 -3.2468994 1.2384169
24.658669 -3.1992424 0.2401313
10.680011 -2.130163 -1.0656923
24.577715 -2.292166 0.40290254
44.35252 -2.4761024 0.82144451
24.932692 -2.9500015 -0.65599966
25.934454 -2.0925353 -0.55380732
50.363647 -11.827188 1.2185315
46.156277 -8.9850693 1.4065276
38.8974 -6.091876 1.399003
27.890831 -3.3215265 1.2342385
24.652462 -3.2772176 0.24013671
10.497981 -2.1286058 -1.0446446
24.731621 -2.385087 0.40419471
44.222744 -2.6083157 0.81975329
13.306989 -2.1053779 -1.3002634
9.5305719 -2.3854213 -0.64184666
24.968946 -3.0338128 -0.65758395
25.222589 -2.1141639 -0.53306556
50.425434 -12.009027 1.2205291
46.188629 -9.1420288 1.4081116
38.854385 -6.2102437 1.3982753
26.626305 -3.2569788 1.1879106
24.661863 -3.357327 0.24016379
10.299924 -2.1057889 -1.0212584
24.690031 -2.4201856 0.40389162
44.208607 -2.6771789 0.81961465
13.105511 -2.0942152 -1.2776713
9.5615692 -2.4092436 -0.6449697
25.041529 -3.0824745 -0.66027021
24.787035 -2.1164224 -0.52035099
50.424007 -12.092424 1.2208816
46.248726 -9.2293987 1.4100533
38.862339 -6.2741475 1.398821
26.002234 -3.2227135 1.1650398
24.662504 -3.3968735 0.24017191
24.704193 -2.4999774 0.4040671
44.23391 -2.8181925 0.820086
12.914538 -2.1049569 -1.2566454
11.292463 -2.3094752 -0.30968294
9.5153675 -2.4293103 -0.6414997
24.869867 -2.2023115 -0.52298766
50.389656 -12.251723 1.2209599
46.284172 -9.3877268 1.4117395
38.854275 -6.3981633 1.3991849
25.311831 -3.2186038 1.1398968
24.687363 -3.4793234 0.24022064
24.702183 -2.5782042 0.40411496
44.222839 -2.957011 0.82005823
9.4826298 -2.4526393 -0.63924432
25.856314 -3.3469465 -0.68926835
24.75334 -2.2702739 -0.51976508
50.358681 -12.411883 1.2211165
46.262287 -9.5346966 1.4119438
38.845806 -6.5221896 1.3995489
24.802092 -3.2335131 1.1214241
24.706011 -3.5611124 0.24026124
24.691975 -2.6555803 0.40409899
44.229298 -3.0970349 0.82028008
12.517121 -2.1202168 -1.2128038
9.4671726 -2.480377 -0.63855022
25.847652 -3.428421 -0.68933719
11.458368 -2.1043849 -0.67555332
24.750065 -2.3484101 -0.51988226
50.364056 -12.581199 1.2220174
38.836952 -6.6462264 1.3999128
24.633305 -3.2904119 1.1155598
24.760006 -3.6482644 0.24035057
24.68947 -2.7338049 0.40414685
28.671751 -2.107363 0.60416532
9.4708805 -2.5132039 -0.63959128
25.91995 -3.520823 -0.69223017
24.742565 -2.4261522 -0.51988226
50.411499 -12.761484 1.2237799
38.833599 -6.7713046 1.4004587
24.741676 -3.3839092 1.119958
37.856743 -7.1512642 0.029092429
24.756334 -3.7272146 0.24036139
24.66288 -2.8092999 0.40400326
27.223259 -2.088217 0.58412027
9.4917803 -2.5507774 -0.64219362
25.548395 -3.5524976 -0.67969418
24.742779 -2.5046852 -0.52011663
50.450565 -12.940203 1.2253858
38.820007 -6.8946748 1.4007013
24.740822 -3.462996 1.1203246
37.810528 -7.2656155 0.02920319
37.51841 -5.7556405 0.25785136
24.687695 -2.8907561 0.40427446
26.576616 -2.1232333 0.57522064
13.973064 -2.5056462 -1.3816833
10.636045 -2.3513253 -0.2811251
9.3838186 -2.5531163 -0.6331718
24.732798 -2.5821948 -0.52005804
50.498676 -13.121811 1.2271874
46.50016 -10.194287 1.4213966
38.823723 -7.0212379 1.4014897
24.721905 -3.5395789 1.1200314
37.430977 -5.8626952 0.25775662
24.656654 -2.9656503 0.40409899
13.802902 -2.5196085 -1.3631177
10.585694 -2.3752072 -0.27914318
9.4467754 -2.6023521 -0.63959128
25.464243 -3.7040937 -0.6775589
24.748417 -2.6624732 -0.52076113
55.474651 -14.603662 1.3288264
46.62991 -10.376278 1.4256375
38.8172 -7.1460776 1.4019749
63.631405 -9.2731915 2.5625012
37.396576 -5.9777441 0.25773495
24.68294 -3.047545 0.40438616
13.816405 -2.566992 -1.3655782
10.640275 -2.1179993 -1.3688563
9.3733473 -2.613647 -0.63369232
24.73794 -2.7399874 -0.52070254
28.063391 -2.0602422 -0.41288453
54.843132 -14.621519 1.3169587
30.364386 -8.5114164 -0.30649406
63.601959 -9.4730482 2.5625012
37.389458 -6.0971222 0.2577512
24.675228 -3.1253273 0.40440211
24.75263 -2.2142458 0.55012971
13.927354 -2.6331255 -1.3792226
10.507555 -2.1256065 -1.3500253
24.75503 -2.8206596 -0.52146429
27.02598 -2.0704222 -0.39006722
54.275757 -14.652783 1.3063836
30.052837 -8.5257559 -0.30166757
46.704002 -8.9071712 1.6470064
63.58176 -9.6743126 2.5628676
37.435234 -6.225337 0.25784054
24.700979 -3.2075043 0.40468925
24.687798 -2.2867093 0.5493257
24.750017 -2.8988843 -0.52158147
26.064533 -2.0800736 -0.36892688
53.606518 -14.652637 1.2937326
50.814941 -11.808795 1.5380485
47.250744 -9.1657028 1.6647772
63.667583 -9.8920698 2.5671926
37.395767 -6.3395834 0.25781345
24.73439 -3.2909367 0.4050402
24.72628 -2.3685944 0.54996336
10.72847 -2.0921793 -1.0141749
13.48212 -2.1389878 -1.2233418
10.126128 -2.1138277 -1.2949809
24.762617 -2.9792743 -0.52222592
25.236822 -2.0946488 -0.35074359
53.034161 -14.675141 1.2830399
50.872959 -11.990805 1.5405523
29.288321 -8.5074186 -0.28960127
47.188381 -9.3075047 1.6637461
63.845444 -10.125136 2.5749626
37.302734 -6.4444857 0.25771329
24.741077 -3.3313994 0.40513593
24.728502 -2.4080074 0.55004656
10.623811 -2.0888474 -1.0025434
10.08602 -2.1218979 -1.2894764
24.767828 -3.0193877 -0.52251893
24.79912 -2.0979974 -0.34112233
52.406242 -14.589744 1.2707413
37.282715 -6.5013628 0.25769976
10.270764 -2.0699389 -1.5558683
24.740396 -3.4104848 0.40521568
24.730766 -2.4866722 0.55018514
24.770119 -3.0986848 -0.52287048
24.692806 -2.167259 -0.33891565
51.777058 -14.589702 1.2588737
50.580654 -12.173912 1.5343696
75.332909 -12.306353 3.0036428
37.279831 -6.6215925 0.25772414
10.229417 -2.0949788 -1.5500958
24.757282 -3.4921322 0.40543902
24.714874 -2.5635366 0.55007422
10.30095 -2.0919013 -0.96697813
24.778107 -3.1787949 -0.5233978
24.745619 -2.2501924 -0.34023958
51.550236 -14.70066 1.255192
50.584896 -12.343162 1.5354937
28.25522 -8.4476299 -0.27316499
37.357265 -6.7564082 0.25785947
10.21699 -2.1258843 -1.5491338
24.748169 -3.5701799 0.40545499
24.732552 -2.6439044 0.55043471
14.636646 -2.4851329 -1.3493254
9.4114361 -2.8328831 -0.64219362
11.324334 -2.3412933 -0.25786161
24.758091 -3.2553086 -0.52310485
24.748384 -2.3288486 -0.3404603
51.457695 -14.849208 1.254252
50.607986 -12.517348 1.5371288
27.987425 -8.4632101 -0.26905596
79.654366 -13.525134 3.1673298
37.335854 -6.8737354 0.25785947
10.208331 -2.1575584 -1.5488131
24.762547 -3.6517303 0.40566236
24.718161 -2.7209406 0.5503515
14.579757 -2.5227115 -1.3440847
24.755667 -3.3341477 -0.52333921
24.742933 -2.4067776 -0.34050441
51.445335 -15.020897 1.254957
50.651814 -12.697139 1.539326
27.972172 -8.5546122 -0.26925159
79.280602 -13.718167 3.1550148
37.50478 -7.0265908 0.25812206
10.224651 -2.1946473 -1.5526613
24.758862 -3.7307057 0.40572619
24.689615 -2.7963512 0.55007422
24.760908 -3.414104 -0.52380794
24.733263 -2.4842997 -0.3404603
39.966198 -11.799601 1.0214421
50.724079 -12.884695 1.5422895
77.327736 -13.631236 3.0839105
37.45108 -7.1384096 0.25807875
10.1965 -2.2220812 -1.5491338
37.607121 -5.8012614 0.50952995
24.710512 -2.8773408 0.55049014
10.824421 -2.1076963 -1.3409758
24.754019 -3.4924383 -0.52392513
24.741247 -2.5636218 -0.34081334
50.906055 -13.101184 1.5481656
27.27676 -8.5290899 -0.25829411
65.773987 -14.385221 2.2472119
37.391163 -7.2488241 0.25802732
10.21066 -2.2588468 -1.5526613
37.519573 -5.908443 0.50897163
27.48756 -3.285311 0.58938801
10.671984 -2.1131911 -1.3199673
9.409277 -2.9617825 -0.64531666
9.3912745 -2.6063228 -0.5762037
24.772602 -3.5745022 -0.52480406
24.729095 -2.6409154 -0.34072512
55.852879 -14.558906 1.6798908
27.268892 -8.6207857 -0.2586202
10.21314 -2.2930996 -1.5542648
37.390259 -6.0084395 0.50807828
27.461224 -3.3697152 0.58916622
10.525449 -2.1189072 -1.2997991
9.3866472 -2.9870634 -0.64410222
10.687696 -2.3838985 -0.23305847
24.80673 -3.6590652 -0.52615166
24.746517 -2.7214046 -0.34129882
55.288731 -14.59775 1.6661971
27.201687 -8.6935892 -0.2579354
30.51635 -8.5086384 -0.087912902
51.581657 -11.615609 1.8086421
37.341595 -6.1210012 0.50783896
24.710073 -3.1135716 0.55087829
10.458567 -2.1398048 -1.2911155
9.3753195 -3.0159223 -0.64392865
10.781663 -2.2049863 -0.55405724
24.735857 -2.7989123 -0.34125471
54.616722 -14.604324 1.649642
27.204676 -8.788868 -0.25845718
30.46829 -8.5985098 -0.087707952
51.482544 -11.76332 1.8067013
47.789799 -9.0550079 1.9880202
37.33007 -6.2396078 0.5079028
24.712072 -3.1927109 0.55104464
10.17828 -2.1164892 -1.2516195
9.3809452 -3.0503302 -0.64531666
10.9154 -2.2677398 -0.56405824
24.734888 -2.8775241 -0.34143126
38.159618 -11.919867 0.98826736
54.070675 -14.640729 1.6364081
47.504005 -9.1556883 1.9784175
37.308308 -6.3565145 0.50788683
24.709852 -3.2713704 0.55115551
10.679992 -2.0978067 -0.93175554
13.53791 -2.1063664 -1.1624199
24.725725 -2.9552166 -0.34143126
53.440094 -14.650624 1.6209261
47.424004 -9.2949123 1.9765116
37.319683 -6.4791861 0.50814205
24.719273 -3.351649 0.55143279
10.698717 -2.1363513 -0.93448067
13.362258 -2.1217237 -1.145216
24.734186 -3.0350537 -0.34182847
52.933304 -14.690869 1.6087141
26.963232 -8.9922171 -0.25575042
29.086067 -8.5063486 -0.075093307
47.408291 -9.446579 1.9770247
37.329163 -6.5412655 0.50830162
24.737755 -3.3937111 0.5517655
10.697299 -2.153542 -0.93469024
13.013202 -2.0865791 -1.1100079
24.747246 -3.0761027 -0.34222561
52.197563 -14.575385 1.5898087
26.986984 -9.047307 -0.25640261
52.494881 -12.604126 1.8424249
47.463947 -9.5351706 1.9796635
37.349762 -6.6659131 0.50863659
26.244169 -3.6827984 0.57300264
24.74341 -3.1545858 -0.34235805
12.201013 -2.1740239 -0.5822866
51.580013 -14.578074 1.5746332
26.964106 -9.1339741 -0.25650048
52.493874 -12.778457 1.8436379
60.988358 -12.444007 2.4869983
37.393562 -6.7950616 0.50916302
24.73772 -3.5521789 0.55207044
12.71139 -2.119606 -1.0806011
11.370561 -2.36854 -0.19106482
24.735361 -3.2325604 -0.34240216
12.029223 -2.1820693 -0.57154667
38.997902 -12.790289 1.0091044
51.547421 -14.743886 1.5749909
26.961758 -9.2277288 -0.25695705
28.13913 -8.4707003 -0.066540703
52.461227 -12.945227 1.8438804
61.033119 -12.652957 2.4901502
10.655173 -2.0921421 -1.5248854
37.440849 -6.925282 0.50972134
24.769978 -3.6362219 0.55268037
9.4125195 -2.3289309 -0.87526888
24.748867 -3.3134129 -0.34293181
11.888895 -2.1949215 -0.56285238
51.585361 -14.930171 1.5772392
26.972311 -9.3261452 -0.25764191
52.439693 -13.114834 1.8444871
61.086952 -12.864366 2.4936688
10.330482 -2.0629067 -1.4750185
37.635078 -7.0837111 0.51147616
24.803925 -3.7207975 0.55331808
9.4013033 -2.3575125 -0.87482148
24.772022 -3.3957291 -0.34368211
11.738803 -2.2050509 -0.55351883
26.967417 -9.4194298 -0.25806588
67.756477 -14.488437 2.7453206
10.438305 -2.1182666 -1.4929584
9.4109316 -2.8385623 -0.94080967
37.644066 -7.2079487 0.51173139
37.737846 -5.7685432 0.73486
9.3880758 -2.3855517 -0.87415045
10.992138 -2.3988554 -0.17852883
24.76123 -3.4735348 -0.34368211
11.582889 -2.2131221 -0.54380172
51.377419 -15.220543 1.5742245
26.999901 -9.5261183 -0.25914204
27.498407 -8.5618315 -0.06108119
56.907848 -14.615155 1.9870783
67.618828 -14.681333 2.7418754
9.3981647 -2.8669641 -0.94034189
37.602951 -5.8689566 0.73322421
9.3670721 -2.4115286 -0.87258464
10.849876 -2.0967855 -1.2864765
24.756136 -3.5521531 -0.34381455
11.419205 -2.2186952 -0.53357315
54.044815 -18.491402 1.3240479
39.681316 -11.897465 1.2635102
27.018805 -9.6283903 -0.25998992
27.333986 -8.6050625 -0.059739601
55.873154 -14.536216 1.9560856
65.975662 -14.542386 2.6819129
10.178951 -2.1329372 -1.454342
9.3777142 -2.8929925 -0.93893868
37.477669 -5.9701462 0.73172712
9.3652143 -2.4424644 -0.87325567
10.724675 -2.1072724 -1.2700149
9.4300261 -3.3810596 -0.65867585
24.746832 -3.6301978 -0.34385866
53.497055 -18.491678 1.3139037
39.295456 -11.916689 1.2542108
27.217899 -9.7960491 -0.26396853
55.044403 -14.50501 1.9315218
41.566547 -11.57545 0.0077602002
10.185741 -2.1677513 -1.4564705
9.3818626 -2.9265437 -0.94057578
37.431091 -6.083384 0.73133898
9.359416 -2.4723868 -0.87347943
10.578151 -2.1126726 -1.2505847
9.3313885 -3.3785574 -0.65052152
12.21099 -2.0061986 -0.50272036
52.987579 -18.501898 1.3045428
38.934727 -11.941212 1.2455755
27.299721 -9.922596 -0.26592523
27.338415 -8.7955704 -0.060317229
54.473259 -14.537418 1.9150246
52.448875 -11.912284 2.1767039
10.18468 -2.200978 -1.4573826
9.3915825 -2.9619279 -0.94291443
37.386143 -6.196713 0.73097855
9.3458452 -2.5002217 -0.87280828
10.517109 -2.1347251 -1.2430285
9.3992481 -3.4367979 -0.65780836
10.696145 -2.4761128 -0.16916125
52.493649 -18.514429 1.295495
38.732754 -12.012641 1.2411813
27.259027 -10.00486 -0.26576221
27.26499 -8.8666105 -0.05987002
54.010525 -14.595638 1.901924
51.754768 -11.926074 2.1520007
10.191238 -2.2358947 -1.459511
9.4106407 -3.0003932 -0.9464224
37.366489 -6.3141336 0.73097855
9.3513632 -2.5332437 -0.87437409
9.5877361 -2.248287 -0.82254183
13.528917 -2.1136529 -1.0737894
10.258166 -2.1151042 -1.2079463
9.427619 -3.4809034 -0.66145176
51.979458 -18.516651 1.2860167
38.734898 -12.146799 1.2422543
27.254103 -8.9578276 -0.060037751
53.574959 -14.65849 1.8896723
10.184163 -2.2679002 -1.459511
9.3765697 -3.0220866 -0.94338208
37.370129 -6.4355493 0.73131126
9.5167284 -2.2633796 -0.81562424
13.408127 -2.138176 -1.0629255
10.14291 -2.1242995 -1.192834
51.520321 -18.53548 1.277674
38.765171 -12.290138 1.2440938
27.23912 -9.0478048 -0.060168158
52.779312 -14.618799 1.8660789
29.164146 -8.5099306 0.066689208
10.180849 -2.300746 -1.4601192
9.402071 -3.0465286 -0.94712394
37.379669 -6.4976535 0.73158842
9.4938078 -2.2737448 -0.81352794
10.623947 -2.2535748 -0.48409265
12.32197 -2.1635439 -0.51055199
51.043667 -18.454361 1.2683523
38.856323 -12.386163 1.2470573
27.289385 -9.1120567 -0.0608017
52.251823 -14.560847 1.8501883
28.930111 -8.4907694 0.067750752
10.811708 -2.4595077 -1.5601572
9.3697824 -3.0686922 -0.94431764
45.659264 -9.8690176 0.57862079
37.388615 -6.6202636 0.73200434
9.3177891 -2.6028314 -0.87280828
9.5175619 -2.3109863 -0.81688201
10.566112 -2.2758913 -0.48076832
12.338706 -2.2064133 -0.5119341
50.634251 -18.486219 1.2610279
57.055408 -18.372278 1.7366582
27.237879 -9.190093 -0.060578089
52.063457 -14.684703 1.8457001
28.588942 -8.4879866 0.069264591
10.979298 -2.5335026 -1.5878271
45.954227 -10.084179 0.58128488
37.387318 -6.7412252 0.73228163
9.4194231 -2.318773 -0.80702972
12.302237 -2.2398615 -0.51020652
50.433361 -18.592564 1.2580513
56.974586 -18.544018 1.7360451
27.218342 -9.2788363 -0.060671251
51.699932 -14.757501 1.8356926
28.328512 -8.5073757 0.070390731
10.901958 -2.551924 -1.5768808
45.764217 -10.193191 0.57999271
37.409233 -6.8665605 0.73289156
9.4391279 -2.355022 -0.80996442
12.291211 -2.2777793 -0.50997615
50.234177 -18.698528 1.2551137
56.636826 -18.631199 1.7285341
27.240129 -9.3818378 -0.061174352
51.60915 -14.907067 1.8342977
28.087372 -8.5310421 0.071424574
9.7104082 -2.3081098 -1.3898798
37.438595 -6.9935641 0.73361236
9.3271818 -2.7005742 -0.87683457
9.5397396 -2.4116778 -0.82170331
12.410567 -2.3349264 -1.4204009
9.6220655 -3.7436163 -0.68539441
50.031082 -18.802019 1.2520978
56.534374 -18.794548 1.7273588
27.27854 -9.4909658 -0.061845139
51.604271 -15.081486 1.835632
58.232121 -14.673532 2.406584
27.850191 -8.5544558 0.072439954
9.6915722 -2.3358562 -1.3880556
37.548088 -7.1360731 0.73546994
9.5282602 -2.4406588 -0.82128406
10.916245 -2.0924859 -1.2240965
9.5244923 -2.9365025 -0.54722834
49.867088 -18.919329 1.2499044
56.327194 -18.922466 1.7233733
27.329746 -9.6050577 -0.062646367
51.719563 -15.291789 1.8407873
57.902977 -14.784335 2.3958819
27.693338 -8.60145 0.07306765
9.6803427 -2.3653626 -1.3874474
45.29002 -8.7494726 0.84509379
9.5263252 -2.4720645 -0.82191288
10.833661 -2.1121469 -1.2140627
49.723392 -19.043676 1.2481419
56.193619 -19.074299 1.7213806
27.354109 -9.7102222 -0.06318672
61.945118 -18.532368 2.166182
57.956875 -14.992155 2.3996935
27.639471 -8.6799965 0.073196888
9.6690254 -2.3948224 -1.3868392
45.26231 -8.8917103 0.84509379
9.3203382 -2.7941167 -0.87907141
9.4626884 -2.4874635 -0.81583381
10.634276 -2.1084454 -1.188592
9.5210581 -3.0011237 -0.54844463
11.430862 -2.2690687 -0.46114331
49.557037 -19.15864 1.2459095
54.323254 -18.630835 1.6724819
27.355484 -9.8075552 -0.063503489
61.452309 -18.59527 2.1524141
57.273331 -15.007756 2.3755767
27.663521 -8.7831707 0.072947651
9.5885487 -2.407088 -1.3752847
45.161583 -9.0194111 0.84406793
9.292511 -2.8175666 -0.87683457
9.4452095 -2.5146463 -0.81478572
10.536174 -2.1236463 -1.1764998
9.4698153 -3.0175905 -0.54509974
11.085739 -2.4858966 -0.1242075
53.943245 -18.690277 1.6637956
27.427994 -9.9308004 -0.064528301
50.061279 -15.315203 1.7928121
56.418324 -14.973662 2.3449359
27.679571 -8.8841324 0.072735339
9.6269484 -2.4487748 -1.3825823
45.134987 -9.161644 0.84409565
9.2513361 -2.8367541 -0.87303203
9.4526367 -2.5484083 -0.81646264
49.25338 -19.397738 1.242071
53.65966 -18.781157 1.6577151
41.674522 -15.222849 -0.20612158
68.576843 -18.425566 2.808435
27.655331 -8.9722843 0.072716892
9.5962219 -2.4731472 -1.3789334
45.088352 -9.2997684 0.84384614
9.3637676 -2.9038012 -0.88734764
9.4465065 -2.5786107 -0.81667233
9.5535011 -2.1951547 -0.77052981
9.4980345 -3.0925906 -0.54890084
33.122227 -6.8494534 -1.7398964
49.05286 -19.496912 1.2391335
52.932987 -18.714033 1.6396271
41.984955 -15.485675 -0.20968051
59.719608 -18.686428 2.102983
68.026787 -18.507305 2.7897427
27.663105 -9.0709944 0.072541513
9.5367279 -2.4899356 -1.3707237
45.07653 -9.4450531 0.84409565
9.3811274 -2.9415994 -0.89047915
9.4345207 -2.6072257 -0.81625307
9.5852947 -2.2342944 -0.77453071
33.047783 -6.9424353 -1.7367868
49.061871 -19.679243 1.2406218
52.363586 -18.698263 1.6257801
42.174171 -15.706002 -0.21204694
59.081268 -18.690411 2.0845451
67.264923 -18.527466 2.7629869
27.687616 -9.1755209 0.07228303
29.528259 -8.5792351 0.24809532
9.5938807 -2.5368953 -1.3810619
45.081844 -9.5940905 0.84459466
9.388876 -2.9765072 -0.89249235
9.4262829 -2.6368518 -0.81625307
9.5259724 -2.2518966 -0.76912951
48.973862 -19.822762 1.2400734
52.011131 -18.757002 1.6178092
42.034744 -15.804685 -0.21115254
58.422554 -18.683859 2.0654399
66.526711 -18.549458 2.7371104
27.664339 -9.2643671 0.072255343
29.313072 -8.6168394 0.24783003
45.086273 -9.669075 0.84487194
9.3936481 -2.9942942 -0.89361066
9.4721231 -2.2547414 -0.76392829
10.55823 -2.2880833 -0.41208005
45.849846 -18.640377 1.1746643
51.968441 -18.833916 1.6174515
41.91256 -15.833996 -0.21018361
57.839401 -18.5973 2.0477903
66.05291 -18.5294 2.7201774
27.69902 -9.3244448 0.072015353
29.044353 -8.5876722 0.24746999
45.102581 -9.8208542 0.8455373
9.3955364 -3.0274773 -0.89495283
45.576508 -18.696182 1.1701208
52.012306 -19.03483 1.6202618
41.79533 -15.939973 -0.20951281
57.52787 -18.696627 2.0397239
65.323296 -18.546566 2.6945944
27.733946 -9.4333706 0.071701497
29.868208 -8.932601 0.2486719
45.128143 -9.9749842 0.84634137
9.387867 -3.0575993 -0.89517647
9.4597006 -2.3146896 -0.76412833
10.407164 -2.324245 -0.40401798
45.391937 -18.787205 1.1674575
50.742405 -18.751705 1.5873049
41.675972 -16.044653 -0.2088234
57.41188 -18.858521 2.0379045
64.872795 -18.63925 2.6796403
27.724976 -9.5276213 0.07159996
28.918972 -8.7486258 0.24736983
50.070995 -13.238388 0.61912453
45.180496 -10.135486 0.84753352
9.3819876 -3.08833 -0.89562386
9.4620333 -2.346818 -0.76512855
45.238602 -18.890368 1.16546
50.666382 -18.904743 1.5868452
41.539593 -16.142231 -0.20796628
57.477547 -19.080416 2.0419073
51.333893 -14.929626 2.1648283
27.772346 -9.6416368 0.071221501
28.135714 -8.6089563 0.24630056
50.218456 -13.446412 0.62068784
9.3816595 -3.1209507 -0.89674217
9.4314709 -2.3706489 -0.76272804
45.131138 -19.01219 1.1644416
50.623585 -19.070156 1.5873049
41.436535 -16.252235 -0.20744453
57.292252 -19.218876 2.0379045
63.128223 -18.568851 2.6174788
27.777765 -9.7414446 0.071046107
28.832855 -8.920723 0.24732652
50.303345 -13.638719 0.62174076
9.3755732 -3.1516855 -0.89718968
9.4432478 -2.4052305 -0.76472849
10.504927 -3.5364583 -0.23847155
45.056465 -19.147614 1.1641282
50.139133 -19.067982 1.5757062
41.320171 -16.356607 -0.2067924
57.343281 -19.436684 2.0414827
62.923977 -18.723827 2.6119075
27.8111 -9.8514252 0.070732281
28.934517 -9.051754 0.2475106
50.414513 -13.839113 0.62301695
50.593975 -11.848557 0.92599463
9.406683 -2.8396025 -0.82023585
9.414464 -2.4293594 -0.762528
9.8666019 -2.1906738 -0.73644716
10.196329 -2.4125323 -0.39330703
45.051208 -19.312733 1.1653032
49.890434 -19.15312 1.5705456
41.227711 -16.470039 -0.20638244
55.623554 -19.048012 1.9882914
62.671516 -18.86331 2.6045043
27.817663 -9.9522552 0.070547663
28.919292 -9.146821 0.24752955
9.7784567 -2.8331029 -1.4205906
50.447857 -14.018881 0.62365508
50.521473 -11.999142 0.92549562
9.4053307 -2.871443 -0.82107449
9.3990889 -2.4568896 -0.76172775
9.8207989 -2.2130053 -0.732701
45.001324 -19.458937 1.1655383
49.830013 -19.309759 1.5705456
41.116398 -16.575583 -0.20578618
55.512428 -19.204992 1.9866538
50.134476 -15.267169 2.1261976
28.034468 -10.129524 0.069329202
29.940348 -9.5723486 0.24902111
9.7068624 -2.845618 -1.4105564
50.717331 -14.26572 0.62625533
50.48159 -12.157331 0.92546791
9.3529568 -3.2425301 -0.89808434
9.4343042 -2.912611 -0.82526696
9.4355373 -2.4982378 -0.76632887
44.987614 -19.621023 1.1665566
41.015942 -16.685108 -0.20530175
55.514091 -19.401085 1.9886553
50.044235 -15.411675 2.1245849
43.944813 -16.050333 -0.0090212999
29.89109 -9.6602268 0.24899404
10.574105 -3.1335139 -1.551035
50.995373 -14.517137 0.6289354
50.472294 -12.322966 0.92588377
9.4403095 -2.9469371 -0.82694387
9.4045944 -2.5216224 -0.76392829
44.911114 -19.755814 1.1662433
49.850925 -19.678926 1.5744799
40.922611 -16.797199 -0.2048918
57.058701 -20.143066 2.0403304
60.49078 -18.831354 2.5276818
43.912933 -16.195242 -0.0091135902
29.341444 -9.5849781 0.24825503
50.87265 -14.655088 0.62829727
50.433327 -12.481469 0.92588377
9.4253092 -2.9747989 -0.82631505
9.4637918 -2.5695839 -0.77092987
9.6036186 -2.2599134 -0.71378279
9.1480293 -2.2851186 -1.0054088
43.745083 -19.406445 1.1425864
49.742416 -19.816965 1.5732025
40.904758 -16.940193 -0.20524584
56.85582 -20.272478 2.0358422
60.284508 -18.975151 2.5220375
43.951778 -16.366669 -0.0095566697
29.436565 -9.7183867 0.24843369
50.440426 -12.6515 0.9265492
9.4364996 -2.5939772 -0.76892948
9.5208883 -2.2722461 -0.70647776
9.3062782 -2.355248 -1.0275347
10.907303 -3.0102193 -0.12285987
43.660179 -19.533146 1.1420771
49.707745 -19.98431 1.5739689
40.960236 -17.114044 -0.20634519
53.585506 -19.294819 1.9324316
60.455074 -19.237686 2.5309072
43.988117 -16.537794 -0.0099905096
29.451435 -9.8259687 0.24849863
50.474792 -12.744399 0.92732549
9.3713799 -3.0065269 -0.82191288
9.406539 -3.5201137 -1.2509453
9.3615007 -2.5889809 -0.76152772
9.6006136 -2.3069849 -0.71453208
43.653152 -19.61237 1.1425864
49.527958 -20.002541 1.5698812
41.079021 -17.239416 -0.20781721
53.699852 -19.431406 1.9371017
58.235359 -18.633118 2.4466078
44.012589 -16.625982 -0.01023975
50.477131 -12.913787 0.92793536
9.4395266 -3.0609033 -0.83050752
9.4009819 -3.5517602 -1.2518144
9.5042686 -2.3156886 -0.70591587
43.602245 -19.754368 1.1428213
49.320423 -20.099257 1.5658958
41.148083 -17.420551 -0.20906563
53.591606 -19.58284 1.9355854
57.832283 -18.704798 2.4333401
44.029266 -16.790573 -0.01058127
29.133862 -9.8730812 0.24811155
50.544735 -13.100344 0.92948794
9.4393215 -3.0936155 -0.8315556
9.4082489 -3.5883765 -1.2547115
9.52983 -2.3535645 -0.70910019
10.775919 -3.5345674 -0.18162836
10.954423 -3.1161919 -0.12502778
43.545429 -19.893747 1.1429389
41.165497 -16.93154 1.3423513
41.291836 -17.634449 -0.211078
56.535717 -20.861757 2.0328095
57.858738 -18.914301 2.4366386
43.985634 -16.932407 -0.01062743
29.008064 -9.9322443 0.2479762
55.11327 -14.466908 0.99555618
9.4408951 -3.1269779 -0.83281326
9.5165911 -2.3820567 -0.70853817
27.008356 -8.9116793 -0.77089024
10.911942 -3.1411152 -0.12403172
43.508133 -20.042177 1.1434872
49.025078 -20.339108 1.5612462
41.44751 -17.854958 -0.21322082
51.605759 -19.224621 1.8752979
57.736397 -19.07531 2.4342196
42.109432 -16.361082 -0.00159977
54.777607 -14.563038 0.99139738
9.4310246 -3.1566215 -0.83281326
9.5109921 -2.4124265 -0.70872551
26.98402 -8.9977455 -0.77102798
10.976826 -3.1973546 -0.12631685
43.472149 -20.191414 1.1440747
48.901905 -20.468351 1.559611
39.61414 -19.032665 -0.5089469
41.624218 -18.086164 -0.21558724
51.31126 -19.298573 1.8677166
57.824078 -19.305908 2.4399374
28.212305 -9.8589525 0.24692589
28.516214 -8.8373642 0.44414011
54.10392 -14.566382 0.98238689
9.5168743 -2.4457278 -0.71003664
26.970778 -9.0875673 -0.77157903
10.960979 -3.2301154 -0.12614104
43.428421 -20.337225 1.1445055
48.793152 -20.603235 1.5583847
39.575748 -19.167496 -0.50933826
41.810875 -18.323469 -0.21806543
51.018677 -19.371576 1.8601958
59.712124 -20.144075 2.5153668
44.063931 -17.441292 -0.0118182
28.120823 -9.9262857 0.24683926
28.581795 -8.9562893 0.44492179
53.494431 -14.58296 0.97429127
9.374507 -3.5671523 -0.91284722
9.3953743 -2.446316 -0.69898546
26.957239 -9.177392 -0.77213007
10.943118 -3.2622321 -0.12590668
43.4095 -20.494925 1.1454847
48.685867 -20.738422 1.5572095
39.524315 -19.296124 -0.50950128
41.952534 -18.542742 -0.22009642
60.040939 -23.018328 2.155386
59.667469 -20.338005 2.5160997
43.949505 -17.555862 -0.01152281
46.866024 -16.690414 0.27381188
28.545895 -9.0436153 0.44485795
52.89695 -14.599046 0.96636194
9.3762293 -3.601608 -0.91441303
9.3137331 -2.7976735 -0.76272804
9.497467 -2.5044703 -0.70966202
26.956635 -9.2717619 -0.77316326
10.948117 -3.3012469 -0.12637544
43.480286 -20.695726 1.1484222
48.633335 -20.89679 1.5575672
39.481438 -19.429041 -0.50982744
42.124294 -18.776915 -0.22244422
55.243019 -19.025841 2.3469882
44.020241 -17.744761 -0.0121505
46.841595 -16.847702 0.27385247
28.545906 -9.1424246 0.44509727
52.271008 -14.603464 0.95801681
9.3619738 -2.8444264 -0.76872945
26.934929 -9.3590202 -0.77343881
10.981642 -3.3491368 -0.12772304
40.041061 -19.211006 1.0751011
48.589466 -21.059 1.5581803
39.411247 -19.548525 -0.5096643
42.346081 -19.035275 -0.22531371
42.094654 -16.433931 1.5754983
55.088581 -19.166502 2.343323
44.229137 -17.99087 -0.01347052
46.856117 -17.019323 0.27394992
28.547478 -9.2419415 0.44535249
51.949657 -14.689925 0.95405215
9.4195137 -2.8944576 -0.77573103
26.960104 -9.4627399 -0.77543628
11.005429 -3.394304 -0.12877771
40.056095 -19.373318 1.0767462
48.556049 -21.225946 1.5591
39.362156 -19.678513 -0.50989258
42.477375 -19.254805 -0.2272702
53.960678 -18.964867 2.3018332
41.281178 -16.941244 0.00095715001
46.823082 -17.174007 0.27397969
51.564816 -14.756386 0.94917262
9.4065762 -2.9228442 -0.77533096
9.43116 -2.582412 -0.70554131
26.947205 -9.5533857 -0.77605623
11.038575 -3.4426501 -0.13012534
48.736805 -23.767323 1.2672946
48.553173 -21.406584 1.5608884
39.396549 -19.850721 -0.51165366
42.745979 -19.538454 -0.23064278
50.462963 -20.072899 1.8521898
53.460026 -18.978039 2.2846801
42.555695 -15.763145 0.26789975
51.4548 -14.899984 0.94825763
9.4230318 -3.3859437 -0.83994043
9.403038 -2.9541857 -0.77593106
9.4498835 -2.6194036 -0.70816362
26.981058 -9.6608467 -0.7783981
11.107724 -3.5027423 -0.13258621
48.652924 -23.915901 1.2670989
48.575218 -21.598772 1.5633922
43.193077 -19.906757 -0.23586009
49.848763 -20.009892 1.8341764
53.338043 -19.123663 2.2822611
44.328827 -18.520399 -0.01482742
46.836033 -17.513334 0.27415565
10.541945 -3.6535735 -1.5707995
9.3861494 -3.4060993 -0.83700573
9.4069757 -2.9879637 -0.77733135
9.4876547 -2.6618662 -0.71265894
26.982542 -9.7570896 -0.77956903
11.15567 -3.5565765 -0.1344026
30.403706 -8.5020361 -0.48861891
48.577549 -24.068632 1.2670989
44.240906 -19.840744 1.4439299
43.173862 -20.062557 -0.23630728
49.561512 -20.075478 1.8268375
53.181843 -19.256475 2.2785227
44.231735 -18.643238 -0.01463358
46.919273 -17.712585 0.27435598
10.457595 -3.6613693 -1.5589409
29.810211 -8.796113 0.63649243
9.4387693 -3.441812 -0.84350407
9.4098463 -3.0051785 -0.7781316
27.038591 -9.8253374 -0.78218645
27.03676 -8.7054176 -0.62370807
30.122704 -8.4747343 -0.48248428
48.54147 -24.145798 1.267138
44.21151 -19.911032 1.4439811
43.082474 -20.102476 -0.23569237
49.352188 -20.080889 1.821015
53.144016 -19.337263 2.2782295
44.134262 -18.683807 -0.01429203
47.01297 -17.832308 0.27453193
10.345455 -3.6406407 -1.541609
29.010349 -9.8475895 0.45037758
29.471918 -8.7973194 0.63200098
9.3830709 -3.4550693 -0.83847308
9.4022512 -3.0353413 -0.77833164
9.4041109 -2.686497 -0.70572859
27.003576 -8.7884502 -0.6235323
29.924736 -8.5207338 -0.47855628
48.454655 -24.292791 1.266903
44.019459 -19.991199 1.4403532
43.06617 -20.259834 -0.23617683
49.190865 -20.195543 1.8178005
51.231045 -18.824627 2.2058785
44.00547 -18.79248 -0.01394126
47.031437 -18.00848 0.2746402
10.24076 -3.6402423 -1.5264058
29.1703 -8.8074389 0.62803632
9.4598789 -3.51688 -0.84832549
9.4002304 -3.0673535 -0.77913183
9.3937111 -2.7154796 -0.70554131
27.000513 -8.8813858 -0.62429398
29.403917 -8.4728365 -0.46721381
39.611897 -20.010155 1.0744745
44.045532 -20.170134 1.4428568
42.984241 -20.386471 -0.23599052
49.034851 -20.311687 1.814768
51.201645 -18.996593 2.2070515
43.922344 -18.920336 -0.01382126
42.12149 -16.283237 0.26759928
9.9927883 -3.588135 -1.4877892
28.951174 -8.8407965 0.62526387
9.5233393 -3.5743477 -0.85671043
9.3905478 -3.0968702 -0.77913183
9.4214725 -2.7555015 -0.70910019
27.088163 -9.0047407 -0.62786812
29.092981 -8.4825802 -0.46068192
39.516769 -20.118153 1.0737695
43.961975 -20.299198 1.4422948
40.106365 -19.17802 -0.20694144
48.895187 -20.43399 1.8122813
51.141712 -19.157354 2.2070515
43.833347 -19.045462 -0.01367357
42.085033 -16.421295 0.26762092
9.9014874 -3.5907295 -1.4747144
37.459145 -13.118682 0.52259517
28.925171 -8.9322929 0.62529159
9.5306807 -3.6112483 -0.85880661
9.443018 -3.1472828 -0.78573334
9.3917513 -2.7789276 -0.70703971
27.099524 -9.1032009 -0.62909859
28.674858 -8.4588671 -0.45167857
48.187981 -24.730104 1.2661196
50.858078 -23.673012 1.6384521
42.819256 -20.638798 -0.23561783
48.788395 -20.569616 1.8108864
51.021442 -19.29533 2.204706
43.754982 -19.175035 -0.01358128
46.958275 -18.489719 0.27478367
10.016495 -3.6677299 -1.4953909
50.605259 -17.911022 0.63419974
28.963793 -9.0439243 0.62626195
9.4951153 -3.6319959 -0.85608149
9.3840933 -3.1602917 -0.78053212
9.4097023 -2.8163409 -0.70966202
27.099182 -9.1979561 -0.62997746
28.398993 -8.4747963 -0.44594109
48.118931 -24.885967 1.2663156
42.736214 -20.764484 -0.23543151
48.695946 -20.711039 1.8099763
50.814907 -19.399992 2.1989882
43.656128 -19.295403 -0.01338743
46.853485 -18.618711 0.27471599
10.030902 -3.7087131 -1.4996479
50.654182 -18.107666 0.63509309
28.990555 -9.1522846 0.62706596
9.4873724 -3.6632314 -0.85650074
9.3912706 -2.8430293 -0.70872551
27.060699 -9.2797937 -0.62968451
28.02375 -8.4591217 -0.43790871
43.461361 -22.64773 1.1651466
57.459953 -27.182722 1.8292952
41.632507 -22.392805 -0.56314737
42.654602 -20.890736 -0.23526384
48.636147 -20.866287 1.8101585
43.604412 -19.436531 -0.01343358
41.393677 -16.603086 0.26684132
9.529851 -3.5588863 -1.4193742
50.734344 -18.316351 0.63625765
28.986435 -9.2511969 0.62742645
9.4146862 -2.8823421 -0.71190977
27.067291 -9.3772259 -0.63079774
27.631674 -8.4359312 -0.42947906
43.290882 -22.73204 1.1629533
40.115143 -19.140488 1.3407161
42.00663 -22.764788 -0.57139814
42.576202 -21.01844 -0.23513339
48.592365 -21.028517 1.8108864
43.506672 -19.557005 -0.01324897
41.280125 -16.708319 0.266752
9.4982595 -3.581188 -1.4160297
50.676552 -18.475649 0.63625765
29.01244 -9.3599749 0.62823039
9.4208136 -2.9165764 -0.71340823
27.069769 -9.4734707 -0.6317938
43.061993 -22.784615 1.1594673
40.080044 -19.278542 1.3414315
42.091072 -22.982018 -0.57430053
42.499214 -21.146757 -0.23502158
48.551708 -21.192276 1.8117353
42.044289 -16.511969 1.860765
43.437729 -19.690283 -0.01321204
45.227688 -18.468967 0.27259913
50.5751 -18.618849 0.63589072
29.131231 -9.4993067 0.63039297
9.4287205 -2.9514666 -0.71509397
27.086981 -9.5751657 -0.63325864
43.051941 -22.952744 1.1608382
48.813599 -23.662157 1.5911372
42.197323 -23.212545 -0.57762694
42.423634 -21.27569 -0.23492844
48.539768 -21.368893 1.8135549
51.323498 -20.336296 2.2288227
43.342922 -19.811663 -0.01304588
41.266808 -17.005404 0.26688734
50.37204 -18.723921 0.63466233
29.175337 -9.6151276 0.63147426
9.4536018 -2.9917982 -0.71846551
27.051115 -9.6581936 -0.63308287
27.255304 -8.6029558 -0.42263824
43.122269 -23.164608 1.1640108
48.726444 -23.809254 1.5907795
42.316532 -23.451729 -0.58121419
39.632111 -20.03367 -0.20649426
44.117565 -19.585217 1.6689621
50.257046 -20.097179 2.1892388
43.267754 -19.941864 -0.01298127
44.46793 -18.485949 0.27165708
50.150089 -18.82086 0.6332745
29.184841 -9.7199736 0.63205647
9.4384623 -3.0196776 -0.71790361
27.031879 -8.6261072 -0.41809237
43.205746 -23.384756 1.1674967
48.647808 -23.960447 1.5906773
42.415459 -23.681152 -0.58444273
39.576107 -20.161705 -0.20656876
48.570538 -21.747875 1.8190742
49.696842 -20.054762 2.1695933
43.203083 -20.076851 -0.01297204
44.295258 -18.57766 0.27148926
50.008209 -18.857224 0.6323173
29.161947 -9.7632732 0.63194555
9.4017906 -3.3817742 -0.78953409
9.4830322 -3.0502236 -0.72277367
26.993544 -8.6606426 -0.41751868
43.251518 -23.497507 1.1693375
48.606529 -24.035065 1.5905751
42.550858 -23.844627 -0.58767128
42.216042 -21.588217 -0.23451848
45.552326 -20.480652 1.719788
49.598591 -20.105804 2.1669545
43.129814 -20.125216 -0.01275973
44.168312 -18.606119 0.27134579
49.857155 -18.979324 0.63153565
9.4228868 -3.4229262 -0.79293501
9.4677172 -3.0781677 -0.72221166
27.077648 -9.9082289 -0.63630545
26.960497 -8.743556 -0.41738629
43.251137 -23.67363 1.1709826
48.528996 -24.186756 1.5905241
42.644604 -24.073631 -0.59083462
42.128452 -21.710665 -0.23431353
44.108006 -19.997223 1.6738142
49.281696 -20.15798 2.1569118
43.055527 -20.255499 -0.01270436
44.047047 -18.718224 0.27125373
49.69836 -19.097792 0.63069016
9.4046202 -3.4497516 -0.79213476
9.4580002 -3.1078961 -0.72221166
27.194483 -10.048117 -0.64093423
26.904383 -8.8188963 -0.41672426
46.427261 -25.60421 1.243716
39.735607 -19.965471 1.3412782
42.794678 -24.336113 -0.59507412
42.067139 -21.846592 -0.23438808
45.462727 -20.784767 1.7211223
41.113358 -16.972437 1.835402
42.980835 -20.385513 -0.01264897
43.927345 -18.830538 0.27116442
49.559814 -19.223412 0.63002014
38.025528 -13.122104 0.76327795
9.3918724 -3.4785843 -0.79193473
9.4273863 -3.1307456 -0.72015136
26.893631 -8.9090166 -0.41712141
42.918049 -23.842854 1.16687
39.485344 -19.995472 1.3359131
43.134338 -24.709211 -0.60290092
42.001846 -21.980495 -0.23442532
43.917961 -20.244642 1.6716914
48.982437 -20.395864 2.1500945
40.100758 -19.172171 0.00176021
43.853279 -18.962105 0.27114275
41.692047 -16.318104 0.5631308
52.994247 -18.463247 0.98360682
9.403244 -3.5164948 -0.79433525
9.4382868 -3.1672606 -0.72221166
26.890171 -9.0016909 -0.41769522
42.572552 -23.826056 1.160799
39.522091 -20.170258 1.3387744
43.316231 -24.994654 -0.60779268
41.929043 -22.110474 -0.23438808
48.842552 -20.517944 2.147089
42.823086 -20.641254 -0.01250127
43.793495 -19.099779 0.27114275
41.698227 -16.471815 0.56362534
52.539772 -18.490414 0.97778457
9.3865709 -3.5438955 -0.79373515
26.871229 -9.0893192 -0.41791582
42.417389 -23.914469 1.1589974
42.80212 -22.011522 1.4348348
43.42762 -25.241247 -0.61137992
41.889404 -22.258024 -0.23470481
48.858841 -20.705561 2.1503146
42.738247 -20.766058 -0.01239973
43.687496 -19.217159 0.27107507
52.053619 -18.503534 0.97149104
9.5518665 -3.6411541 -0.81273949
26.89743 -9.1923952 -0.41919577
42.408104 -24.085169 1.1604857
42.423801 -21.985975 1.4259441
43.524082 -25.4807 -0.61470628
41.888058 -22.426291 -0.23543151
