# .PCD v0.7 - Point Cloud Data file format
VERSION 0.7
FIELDS x y z
SIZE 4 4 4
TYPE F F F
COUNT 1 1 1
WIDTH 1537
HEIGHT 1
VIEWPOINT 0 0 0 1 0 0 0
POINTS 1537
DATA ascii
15.359254 10.579147 0.46415514
7.9550142 4.6252155 -1.0827109
17.398838 7.9942026 -0.77959603
16.183735 8.1532383 -0.6070627
16.51988 8.0433931 -1.2749224
16.513851 9.1345234 -0.55331802
16.516874 9.9377947 -0.45507896
16.515034 8.8385868 -1.215461
16.469515 9.6081762 -1.1153636
16.24337 10.632014 -0.36021781
14.848256 10.506258 -0.19327264
16.541643 10.506831 -1.0437217
14.541125 10.007285 -0.80711949
17.359926 7.9603071 0.57928324
16.506187 8.314496 0.67713374
18.681732 8.26964 -0.12540184
16.516422 8.0435715 0.036090661
16.517996 9.1335077 0.77714497
16.393499 9.8438864 0.90539825
16.531618 8.839488 0.1203844
16.502022 9.6081018 0.23232159
7.5720181 5.1662016 -1.6869588
8.0252476 4.1862307 -1.8158922
7.8371315 4.6152415 -1.7411077
16.535753 10.456573 0.36206383
7.9763565 4.6041784 -1.0838314
18.145874 8.2673092 -0.82060111
16.302134 8.1489363 -0.61174726
16.494839 7.9671021 -1.2704017
16.51968 9.0701218 -0.55226773
16.513729 9.8653049 -0.45370138
16.301258 8.6588326 -1.1946311
16.47892 9.5443554 -1.1136968
16.330378 10.615723 -0.36209279
15.116519 10.625463 -0.19962801
16.547537 10.437805 -1.0416758
14.529682 9.9321909 -0.80412507
18.097008 8.2284088 0.59459764
16.507208 8.2500448 0.67641842
18.823048 8.2613897 -0.12745638
16.525415 7.9837861 0.036258351
16.501013 9.0566206 0.77556807
16.496389 9.8354177 0.90847701
16.54163 8.7781534 0.12047671
16.506174 9.5411577 0.23228098
7.5865855 5.1412902 -1.6865659
7.9322257 4.8491235 -1.2846729
8.0400982 4.1618891 -1.816317
7.8600311 4.5955615 -1.7431438
16.543093 10.388656 0.36182451
15.471691 10.513968 0.46493143
7.9856343 4.5761299 -1.082991
18.281031 8.2594652 -0.82679832
16.440338 8.1537714 -0.61742282
16.694054 7.9990468 -1.2860615
16.521751 9.0038748 -0.55105585
16.513716 9.7949829 -0.45246154
16.210098 8.5454407 -1.1844442
16.477713 9.4745979 -1.1111966
16.45442 10.622802 -0.36525679
14.620809 10.207447 -0.18537264
16.539618 10.360397 -1.0386074
14.534408 9.8685131 -0.80228233
18.261387 8.2338018 0.59757429
16.527674 8.1954756 0.67626512
18.984673 8.2610922 -0.12986962
16.644133 7.9769111 0.035289451
16.515329 8.9971085 0.77508289
16.527206 9.7835464 0.90847701
16.514229 8.6973324 0.12076286
16.501402 9.4693022 0.23222685
7.5880303 5.1076188 -1.6830298
8.053133 4.136611 -1.816317
7.8592138 4.5619564 -1.7394791
16.550169 10.320797 0.36158526
15.678524 10.583033 0.46784258
8.0102806 4.5569258 -1.0846717
18.427258 8.2557392 -0.8336153
16.51066 8.1242027 -0.61967504
16.803661 7.9869037 -1.2936494
16.516531 8.9339104 -0.54952079
16.513426 9.7247601 -0.4512217
16.541014 8.6530466 -1.2105957
16.476229 9.4049397 -1.1086962
16.541607 10.605515 -0.36713171
15.319216 10.625053 -0.20329112
16.543245 10.290506 -1.0364338
14.537223 9.8037853 -0.80032432
18.407711 8.2301083 0.60015935
16.531824 8.1328945 0.67565191
19.131781 8.2535419 -0.13202198
16.770187 7.9728155 0.034245979
16.492476 8.9176798 0.77332395
16.523422 9.7112789 0.90701085
16.525505 8.6370955 0.12084594
16.506756 9.4035263 0.23218895
7.6089377 5.0870123 -1.6842085
8.0081692 4.8268704 -1.2928827
8.0591116 4.1077628 -1.814618
7.8819742 4.5421576 -1.7415152
16.536562 10.240387 0.36115453
15.788028 10.585059 0.46911788
8.0279989 4.5336971 -1.0852319
18.595558 8.2608786 -0.84167171
16.519949 8.0643835 -0.6188643
16.958408 7.9954667 -1.3052733
16.523373 8.8706675 -0.54855126
16.511137 9.6536226 -0.44991302
16.463615 8.546977 -1.2016251
16.479675 9.3383455 -1.1066128
16.527584 10.523498 -0.36549115
14.781705 10.182449 -0.18797655
16.5483 10.22174 -1.0343881
14.556347 9.7502737 -0.79951823
18.556025 8.2263832 0.60278356
16.524971 8.0650911 0.67473221
19.31398 8.260046 -0.13479398
16.899996 7.9697146 0.033165261
16.511595 8.8611107 0.77302068
16.524527 9.6421604 0.90576476
16.531235 8.5741196 0.1209567
16.5049 9.3338604 0.23214023
7.6216078 5.0609245 -1.6834228
8.0114384 4.7945504 -1.2907542
8.064991 4.078918 -1.8129191
7.8928094 4.5154204 -1.7407006
8.5696411 3.7892542 -0.93975472
16.544792 10.173738 0.36093119
15.897713 10.586489 0.47039324
8.02841 4.5006618 -1.082991
18.74213 8.2553883 -0.84848869
16.538023 8.0089397 -0.61850381
17.084509 7.9895668 -1.3143139
16.524693 8.8046427 -0.54733944
16.512024 9.5845919 -0.44874209
16.545385 8.5234337 -1.2063385
16.475924 9.2678843 -1.1039736
16.547045 10.462981 -0.36502242
15.473053 10.588552 -0.20563023
16.544579 10.14782 -1.031703
14.630095 9.733305 -0.80251265
18.711828 8.2249966 0.60556448
16.526857 8.0017653 0.67406797
19.455893 8.2483463 -0.13684849
17.024527 7.9633112 0.03214043
16.502279 8.7894983 0.77174705
16.528824 9.5751238 0.90466517
16.547421 8.516654 0.12101208
16.516724 9.2721357 0.23211315
7.6358328 5.0358739 -1.6830298
8.0111971 4.760222 -1.2880176
8.0812664 4.0552974 -1.8137686
7.9137602 4.4944839 -1.7423295
8.5997028 3.7702343 -0.94220531
16.549335 10.105075 0.36067593
15.997551 10.580713 0.47150224
8.0355988 4.4715481 -1.0818707
18.881519 8.2458887 -0.85489261
16.573896 7.9621539 -0.61904442
17.234224 7.9939065 -1.3254535
16.516912 8.7340555 -0.54572356
16.516094 9.5176687 -0.44770885
16.536541 8.4533119 -1.2032976
16.475365 9.1995039 -1.1016123
14.619355 9.1835384 -0.29723096
15.623535 10.61986 -0.20876373
14.607624 8.9003468 -0.88415641
14.63397 9.6696463 -0.80066991
18.867794 8.2227297 0.60834533
16.56992 7.9584889 0.67457891
19.645868 8.2559376 -0.13975094
17.178183 7.9697275 0.030817481
16.515659 8.7301607 0.77126187
16.524199 9.5031776 0.90319914
16.543791 8.4492083 0.12116901
16.512602 9.2016611 0.23206173
7.6483274 5.0097222 -1.6822441
8.0618057 4.7562246 -1.2944031
8.0869589 4.0264268 -1.8120699
7.9227304 4.4667015 -1.7411077
8.585988 3.7321937 -0.93877447
16.541632 10.029243 0.36030903
16.104187 10.578815 0.47272211
8.0686426 4.4568691 -1.0849518
19.046705 8.2466717 -0.8627423
16.705172 7.9609113 -0.62435961
17.355173 7.984015 -1.3340096
16.530098 8.674716 -0.5450772
16.519909 9.4508142 -0.44667572
15.781699 8.0063868 -1.1365503
16.479773 9.1341286 -1.0996677
16.522472 10.302871 -0.36191702
15.704836 10.603243 -0.21004368
14.609871 8.8389559 -0.88223857
16.153519 10.604125 -0.90351844
19.033115 8.2235203 0.61132205
16.708477 7.9607348 0.67779791
19.800993 8.2478504 -0.14203377
17.302996 7.9618406 0.02979267
16.504026 8.6578598 0.7699275
16.526218 9.4353285 0.90202624
16.530973 8.3773613 0.12137209
16.509947 9.1322756 0.23201299
7.6557932 4.9803476 -1.6802796
8.6082964 3.8202374 -1.4696097
8.087285 3.9949796 -1.8090969
7.9367232 4.4417911 -1.7411077
8.6414719 3.7239354 -0.94465601
16.537046 9.955617 0.35997403
16.207623 10.574162 0.47388655
8.0670004 4.4228883 -1.0824308
19.199228 8.2410002 -0.86986923
16.823963 7.9529266 -0.62904418
17.960173 8.1950283 -1.3856711
15.752009 8.2048044 -0.5083977
16.506098 9.374136 -0.44495368
16.542978 8.3260059 -1.1993444
16.476942 9.0649595 -1.0971675
16.54965 10.247765 -0.36174124
15.816046 10.606301 -0.21211796
16.541866 9.9330187 -1.0244153
16.27866 10.613428 -0.90985286
19.193104 8.2209949 0.61418122
16.827335 7.9527631 0.68045497
19.985847 8.2510414 -0.14483838
17.560661 8.014039 0.02740762
16.520494 8.6004467 0.76956356
16.522766 9.3645954 0.90063345
16.528601 8.3110552 0.12151978
16.507023 9.0629959 0.23196428
7.6714005 4.9562736 -1.6802796
8.6256618 3.7955732 -1.4706248
8.0892496 3.9644237 -1.8065485
7.9523468 4.4177928 -1.7415152
16.544193 9.8892765 0.35975069
16.324608 10.577673 0.47527277
8.0704365 4.3918118 -1.0807501
19.381325 8.2469177 -0.87864864
16.980837 7.962131 -0.63562059
18.22361 8.2465305 -1.4068198
15.839891 8.1872978 -0.5112254
16.519812 9.3133736 -0.44433379
16.544062 8.2615519 -1.1972158
16.479097 8.9987659 -1.0950838
16.561317 10.183181 -0.36103815
15.945726 10.620978 -0.21467777
16.545542 9.8646812 -1.0223695
16.397329 10.617691 -0.91572666
19.36064 8.2206545 0.6171971
16.928225 7.9356022 0.68260098
20.115368 8.2304916 -0.1466646
18.179367 8.2284412 0.021333219
16.506557 8.5274534 0.76816863
16.531219 9.300849 0.89975381
16.538517 8.251071 0.12160286
16.519623 9.0024538 0.23193991
7.6770139 4.9258208 -1.6779224
8.6357393 3.7676606 -1.4702864
8.085824 3.9313436 -1.8027261
7.9678998 4.3937364 -1.7419224
16.533911 9.8479624 0.35951141
16.408342 10.595501 0.47638178
8.0912304 4.3867197 -1.082991
7.988451 4.771049 -1.0487267
19.535938 8.2762833 -0.88660169
17.085588 7.9786906 -0.64021504
18.383669 8.2844276 -1.4198966
15.938076 8.2061949 -0.5151034
16.504816 9.2707319 -0.4431628
16.539148 8.2266989 -1.1956954
16.459934 8.9547091 -1.0924447
16.517578 10.120677 -0.35898739
16.038948 10.64689 -0.2167079
16.536974 9.82444 -1.0205795
16.481037 10.635318 -0.9203335
19.495148 8.2414722 0.61978215
16.897217 7.8886437 0.68137467
20.333941 8.2823753 -0.15028451
18.341686 8.2674599 0.019805299
16.505699 8.4942179 0.76768345
16.510967 9.2552776 0.89828777
16.526363 8.2126579 0.12173209
16.495102 8.9554462 0.23188035
7.693018 4.9190149 -1.6798868
8.811388 3.828388 -1.5020907
7.9713635 4.3793197 -1.7411077
8.4404325 3.8654962 -0.87649757
16.525143 9.7726126 0.35914451
16.495371 10.578522 0.47726899
8.0997467 4.3584509 -1.0821507
7.9999857 4.7439198 -1.048187
19.688972 8.2680769 -0.89372861
17.24283 7.9864583 -0.64679146
18.531473 8.2812853 -1.4307132
16.033232 8.1914444 -0.51825428
16.511181 9.2061539 -0.44226742
16.541647 8.1632614 -1.1937189
16.393255 8.8516369 -1.084944
14.605846 8.8899021 -0.29236776
16.107344 10.619614 -0.21763472
16.531624 9.7511969 -1.0178945
16.517725 10.58565 -0.92056382
19.668554 8.2418346 0.62291551
16.905596 7.8279405 0.68091476
20.500858 8.2751799 -0.15276299
18.477057 8.2589092 0.01868731
16.493107 8.4223785 0.76634908
16.517273 9.1906996 0.89733481
16.530539 8.1501188 0.12184285
16.503801 8.8931227 0.23185058
7.6951647 4.8864517 -1.6767437
7.9833655 4.3533149 -1.7407006
8.4453106 3.8356524 -0.87556201
16.528147 9.7044802 0.35888925
16.503242 10.510495 0.47685307
8.0994473 4.3254786 -1.0799097
8.0199833 4.7217627 -1.0489967
19.856913 8.2651043 -0.90168178
17.358561 7.9740696 -0.6512959
18.670334 8.2732363 -1.4407225
16.149858 8.1869822 -0.52237469
16.510317 9.1377373 -0.44109648
16.504484 8.0806475 -1.1883973
16.470188 8.8265438 -1.0888332
16.534607 9.9888468 -0.35740542
16.24091 10.634811 -0.22028284
16.532875 9.6821012 -1.015721
16.510508 10.507919 -0.91779971
19.845858 8.2427073 0.62612724
16.904684 7.7630701 0.68019944
20.697653 8.2788534 -0.15576325
18.632652 8.2585173 0.017364349
16.494507 8.3579025 0.76549995
16.519846 9.1242294 0.89623529
16.527298 8.0841217 0.12199055
16.506989 8.8279877 0.23181269
7.7038321 4.8580852 -1.6751723
7.9987226 4.3291473 -1.7411077
8.479023 3.8189523 -0.87836844
16.529158 9.6354284 0.35861808
16.504095 10.438246 0.47632635
8.1287203 4.3084049 -1.0824308
20.045341 8.2695208 -0.91077101
18.12488 8.2584629 -0.6880517
18.845804 8.280489 -1.4539607
16.26125 8.1791868 -0.52625269
16.512682 9.0713539 -0.4400633
16.470552 8.0000925 -1.1833799
16.466152 8.7578535 -1.086333
16.519579 9.909152 -0.3558234
16.337875 10.625248 -0.22195984
16.537308 9.6151047 -1.0138031
16.509708 10.434621 -0.91549623
20.021503 8.2417984 0.62929976
16.907167 7.6999526 0.67958629
20.863049 8.2688923 -0.15820913
18.781105 8.2540112 0.01611593
16.508167 8.299777 0.76507539
16.513401 9.0530243 0.89476919
16.511198 8.0121393 0.12220286
16.506392 8.7610464 0.23176937
7.7190561 4.8338609 -1.6751723
8.0140057 4.3049307 -1.7415152
8.461998 3.7792523 -0.87462658
16.536825 9.5704565 0.35841066
16.50466 10.366089 0.47579956
8.1352158 4.2791367 -1.0813103
20.202547 8.2600107 -0.91810441
18.24172 8.2427301 -0.69255602
18.990456 8.273138 -1.4644544
16.379911 8.174325 -0.53045386
16.507784 9.0012016 -0.43875462
16.58729 7.992322 -1.1911341
16.426586 8.6705894 -1.0810547
16.542036 9.8520975 -0.35553044
16.441664 10.619523 -0.22381358
16.539757 9.5471725 -1.0117575
16.523825 10.370997 -0.91422939
20.193636 8.238349 0.63239396
16.903963 7.6344128 0.67881989
21.054661 8.2681675 -0.16111155
18.955372 8.2598629 0.01460665
16.496571 8.2291832 0.76380175
16.522465 8.9905615 0.89396286
16.559734 7.971468 0.12208285
16.510853 8.6969929 0.23173417
7.7275319 4.8054614 -1.6736007
8.0274925 4.2797303 -1.7415152
8.5010395 3.7647924 -0.87813455
16.535572 9.5005684 0.35812354
16.49984 10.290858 0.47518963
20.406191 8.268302 -0.92802
18.409658 8.2492943 -0.69958293
19.155363 8.2736874 -1.4767241
16.432394 8.1360903 -0.5316658
16.513144 8.9369001 -0.43785912
16.722143 7.9924784 -1.2004087
16.121719 8.4444294 -1.0549408
16.54879 9.7858706 -0.35471016
16.523708 10.599192 -0.22509344
16.533274 9.4743776 -1.0090725
16.517382 10.294696 -0.91158044
20.371504 8.2361517 0.63560569
16.900509 7.5689754 0.67805344
21.250198 8.2677736 -0.16407917
19.107834 8.2551603 0.01332095
16.511581 8.1720142 0.76343781
16.515482 8.91957 0.89249676
16.714725 7.9812737 0.12141825
16.507982 8.6292906 0.23168816
7.7509465 4.7862902 -1.6755651
8.8468018 3.6796074 -1.4976923
8.0374393 4.2526503 -1.7407006
8.4928417 3.7292275 -0.87556201
16.535778 9.4317713 0.35785234
16.510004 10.225256 0.4748292
20.591541 8.2679749 -0.93690276
18.552269 8.243494 -0.70534861
19.307632 8.2677736 -1.4878635
16.518894 8.1142998 -0.53441268
16.514742 8.8707561 -0.43682593
16.86257 7.9944224 -1.2101395
16.271996 8.458334 -1.0646641
16.532866 9.7065716 -0.35312819
16.531649 10.531085 -0.22443144
16.54212 9.4105787 -1.0075382
16.510622 10.218536 -0.90893149
20.555124 8.2351418 0.63893491
16.898636 7.5044508 0.67733812
15.767328 6.084816 -0.067842379
19.258614 8.2487936 0.01205391
16.508442 8.1060476 0.76246738
16.517017 8.8534441 0.89139724
16.855471 7.9833555 0.12082747
16.501301 8.559844 0.23163672
7.7575703 4.7568164 -1.6736007
8.8601379 3.6525548 -1.4980309
8.0490274 4.2264647 -1.7402934
8.5354376 3.7160954 -0.87953776
16.547913 9.3699493 0.35769281
16.513111 10.155493 0.47435784
20.756664 8.2584639 -0.94464934
18.700504 8.2393017 -0.71138442
19.485735 8.2719221 -1.5012631
16.520937 8.0510206 -0.53336239
16.510801 8.8018646 -0.43558615
16.999559 7.9938698 -1.2195663
16.477446 8.4998074 -1.0786933
16.533892 9.6375122 -0.35213208
16.497114 10.436252 -0.22266604
16.540293 9.3409424 -1.0052367
16.515446 10.149855 -0.90708864
20.746378 8.236001 0.64242083
16.907499 7.4448619 0.6769293
15.924668 6.0878849 -0.070255622
19.431623 8.250968 0.01056325
16.503252 8.0393076 0.76143628
16.521826 8.789279 0.89044428
16.954733 7.9651294 0.12044901
16.508564 8.4978685 0.23160695
7.7775092 4.7354674 -1.6747792
8.0640001 4.2020683 -1.7407006
8.5270376 3.6805413 -0.87696522
16.542379 9.2983522 0.35737377
16.519363 10.087888 0.47394198
7.8863764 4.8009353 -0.97993809
20.947962 8.2582026 -0.95384181
18.870865 8.2438688 -0.71850133
19.640184 8.2649307 -1.5125639
16.53355 7.9929957 -0.53279686
16.513662 8.7368183 -0.43462181
17.124062 7.9866362 -1.2279286
16.475679 8.433403 -1.0764709
16.539852 9.5715246 -0.3513118
16.531521 10.385426 -0.22271015
16.536459 9.270422 -1.0028074
16.547258 10.097908 -0.90708864
20.924814 8.2306118 0.64563251
16.916161 7.3852763 0.67652059
19.591944 8.2466688 0.0092030298
16.523029 7.9848089 0.76125437
16.521107 8.7223501 0.88927144
17.106659 7.9707656 0.11980286
16.510269 8.4331799 0.23156905
7.7873082 4.7079763 -1.6736007
8.0771646 4.1767082 -1.7407006
8.744792 3.4311452 -0.94269562
8.5786839 3.6710396 -0.88211018
16.541794 9.2298164 0.35710257
16.516798 10.015159 0.47338748
21.143181 8.2582893 -0.9632411
19.028601 8.2418861 -0.72498763
19.813164 8.2647686 -1.5254793
16.603657 7.9625578 -0.53481662
16.130754 8.4687557 -0.41864181
17.274031 7.9904013 -1.2384197
15.755499 8.0010815 -1.0181317
16.535143 9.4996481 -0.35013992
16.52677 10.310109 -0.22173922
16.544556 9.206811 -1.0012732
14.577459 8.8294449 -0.77199209
21.123919 8.2321653 0.64927506
16.924606 7.3257246 0.67611182
16.196785 6.0751338 -0.074332073
19.77087 8.2491875 0.0076564802
16.605757 7.9604349 0.76319522
16.525427 8.6583176 0.88831848
17.25878 7.9755421 0.11915671
16.508158 8.366766 0.23152573
7.7936387 4.6784682 -1.6716363
8.0885057 4.1504154 -1.7402934
8.781455 3.4136541 -0.94612646
8.5719099 3.6362646 -0.87977165
16.546194 9.1642723 0.35687923
16.519075 9.9456472 0.47291619
8.0012693 4.8025646 -0.99280196
21.3181 8.2493238 -0.97150409
19.179169 8.2358313 -0.73111355
19.991858 8.2658892 -1.5388789
16.726101 7.9565787 -0.53917938
15.806554 8.2346745 -0.40500373
17.406055 7.9850121 -1.2473903
15.860675 7.9920669 -1.0243824
16.547525 9.4377775 -0.34955406
16.535301 10.243368 -0.22112136
16.548918 9.1413155 -0.99948317
16.518061 9.9380369 -0.90086937
21.282177 8.2167492 0.65205592
16.923666 7.262239 0.67544758
16.365837 6.0797095 -0.076940998
19.924141 8.2399282 0.0063708099
16.713781 7.9476023 0.76598513
16.517103 8.5878716 0.88685238
17.396544 7.9727936 0.11858441
16.509359 8.3022518 0.23148784
7.8049216 4.6519628 -1.6708505
8.1049881 4.1267719 -1.7411077
8.7847185 3.3832181 -0.9451462
8.6180382 3.6240451 -0.88421494
16.536316 9.0911074 0.35652828
16.514221 9.8721094 0.47233397
8.0435305 4.7937279 -0.99691838
15.834208 6.0773225 -0.66649628
19.342747 8.2344074 -0.73787022
20.120972 8.2455006 -1.5479198
16.877607 7.9635124 -0.54483485
15.894446 8.2171984 -0.40741456
18.152128 8.2571659 -1.3077518
15.976647 7.9878373 -1.0314664
16.554459 9.3729744 -0.34879231
14.608763 8.9829149 -0.17032285
16.54953 9.0739698 -0.99743754
16.530361 9.8748083 -0.89960253
21.47044 8.2118149 0.65546352
16.893074 7.1862664 0.67396575
16.529444 6.0812201 -0.079452112
20.103443 8.2404385 0.00482425
16.859886 7.9520268 0.7700488
16.531576 8.5295095 0.88633925
18.128387 8.2382278 0.11500288
16.508533 8.2369165 0.23144723
7.8059735 4.6194701 -1.6677074
8.123147 4.1039548 -1.7423295
8.6092377 3.5884876 -0.88164252
16.566555 9.0400629 0.35654423
16.512506 9.8007364 0.47180718
8.0312872 4.7521963 -0.99280196
15.922341 6.0537009 -0.67031783
19.512026 8.2343636 -0.74489713
20.344307 8.2627411 -1.5651939
16.994909 7.9535165 -0.54895526
16.003708 8.2102213 -0.41065186
18.285294 8.2483349 -1.3167223
16.103472 7.9882874 -1.0393839
16.541965 9.2974653 -0.34738606
16.519201 10.090175 -0.219047
16.549889 9.0067015 -0.99539179
16.533848 9.8064899 -0.8977598
21.647661 8.2015305 0.65863603
16.908203 7.1300378 0.67376137
16.649984 6.0660734 -0.081213132
20.299616 8.2466888 0.0031100099
16.873915 7.8939486 0.76968491
16.524513 8.4601746 0.88494653
18.27277 8.2344856 0.11440288
16.516418 8.1761093 0.23142016
7.8289165 4.599865 -1.6696719
8.1202698 4.0704703 -1.7386646
8.6203613 3.5772605 -0.88234407
16.527983 8.985445 0.35606563
16.498644 9.7574434 0.47133589
8.0404472 4.7405882 -0.99305922
16.068277 6.0800786 -0.67785782
19.644606 8.254158 -0.75075281
20.493958 8.2862329 -1.5771406
17.134256 7.9857316 -0.55461067
16.071718 8.2133503 -0.41278708
18.429279 8.2782688 -1.3276694
16.232182 8.0206003 -1.0484124
16.54084 9.262701 -0.3468588
14.596321 8.8806295 -0.16891055
16.534163 8.9645643 -0.99321824
16.521749 9.7642164 -0.89591706
21.791546 8.2167578 0.66137773
16.904644 7.0972586 0.6733526
16.796806 6.0894685 -0.083593771
20.447821 8.2696896 0.00174978
16.918932 7.882586 0.77077663
16.519991 8.4251041 0.88421345
18.408005 8.260478 0.11378442
16.500563 8.1359653 0.23137686
7.8395219 4.5895343 -1.6704576
8.1336508 4.0612297 -1.7402934
8.6462355 3.5562479 -0.88421494
16.519136 8.9135876 0.35573062
16.499922 9.6883135 0.47086453
16.190222 6.0679703 -0.68353868
19.819759 8.2548094 -0.75804996
15.607378 6.2467828 -1.1483521
17.255457 7.9761753 -0.55889267
16.229265 8.229908 -0.41788417
18.582788 8.276968 -1.3383126
16.359343 8.0197735 -1.05633
16.53838 9.1932554 -0.34580415
16.530655 9.9904556 -0.21812017
16.48661 8.872014 -0.98772031
16.521366 9.6940355 -0.89384401
21.984035 8.2103405 0.66486365
16.91394 7.038723 0.67299497
16.962734 6.0891614 -0.086137488
20.63327 8.2695866 0.00014733001
16.92182 7.8193655 0.7700488
16.514299 8.3568773 0.88289398
18.563671 8.2601719 0.11312903
16.497313 8.0699883 0.23133354
7.8471069 4.5609617 -1.6688859
8.1446171 4.0347843 -1.7398864
8.6628761 3.5313294 -0.88491648
16.465902 8.8183231 0.3549968
16.500933 9.6192636 0.47039324
8.5383615 3.7933614 -1.1483887
16.36471 6.0745316 -0.69211155
19.989576 8.2521372 -0.76507676
15.643594 6.2043552 -1.1498051
17.440392 7.994988 -0.56600237
16.340685 8.2221231 -0.42119038
18.732815 8.2731695 -1.3486515
16.461557 8.0059671 -1.0623028
16.539158 9.1258335 -0.34486663
16.534555 9.9219713 -0.2174141
16.53731 8.8323641 -0.98938257
16.520714 9.6239471 -0.89177084
22.127922 8.1848001 0.66733116
16.934126 6.9847808 0.67294383
17.164648 6.1005349 -0.089300796
20.820782 8.2691278 -0.00147375
16.920845 7.7545362 0.76919967
16.510132 8.2896614 0.88164783
18.719522 8.2589588 0.11247366
16.506405 8.0102348 0.23130918
7.8528929 4.5314088 -1.6669217
8.1677828 4.0143876 -1.7423295
8.6849642 3.5085933 -0.8863197
16.514732 8.7777882 0.35518825
16.505125 9.5523176 0.46997738
8.591939 3.7847531 -1.1550519
16.531891 6.0773172 -0.70027119
20.141083 8.2409019 -0.77120268
15.640756 6.1463981 -1.1478677
18.135296 8.2436066 -0.59573382
16.450426 8.2128315 -0.42442769
18.88117 8.2677202 -1.3588384
16.506378 7.9637799 -1.0638306
16.54493 9.0613804 -0.34410495
14.622729 8.7088213 -0.16745414
16.527912 8.7607918 -0.98669761
16.526688 9.5579748 -0.89015853
22.285011 8.1632509 0.67007285
17.02442 6.9596405 0.67483437
17.18939 6.0485673 -0.089398637
21.015926 8.2705202 -0.0031693601
16.919626 7.6897984 0.76835054
16.52 8.2297125 0.88098812
18.890209 8.2632513 0.11174443
16.562098 7.9731326 0.23135519
7.8722014 4.5096273 -1.6681002
9.018609 3.4068792 -1.5078427
8.1803532 3.9887094 -1.7423295
8.6996298 3.4827754 -0.88678747
16.502136 9.4814396 0.46945059
8.5874462 3.7506561 -1.1524446
16.665451 6.0668564 -0.70657176
20.370443 8.2604103 -0.78111231
15.643283 6.0906916 -1.1464148
18.30147 8.2496386 -0.60195482
16.499418 8.1726713 -0.42532313
19.038834 8.2653713 -1.3697857
16.644621 7.9663038 -1.0725816
16.536406 8.9893541 -0.34287447
16.526068 9.7760506 -0.21560456
16.535912 8.6986256 -0.98529106
16.52549 9.4880638 -0.88808537
22.325594 8.0986309 0.6703862
17.135094 6.9422784 0.67728698
21.190809 8.2627449 -0.0046600299
16.918173 7.6251369 0.76750147
16.515337 8.1626692 0.87974191
19.037245 8.2562284 0.1111352
16.682657 7.9668713 0.23149866
7.886332 4.4848714 -1.6681002
8.1946049 3.9638457 -1.7427366
8.7695436 3.4790306 -0.89427108
16.409977 8.5905933 0.35375249
16.498861 9.4106827 0.46892381
8.6028233 3.7252238 -1.153024
16.853624 6.0751867 -0.71586764
20.537123 8.2531633 -0.7879591
15.641891 6.0335965 -1.144639
18.442297 8.2433319 -0.6070447
16.508875 8.1128435 -0.42470324
19.196663 8.2621202 -1.3807328
16.775833 7.9646125 -1.0807769
16.52935 8.9184246 -0.34170264
16.518797 9.7017584 -0.21463363
16.538366 8.6337395 -0.98350114
16.525747 9.4192572 -0.88612747
22.343393 8.0257616 0.67022955
17.284771 6.9399972 0.6808126
17.641275 6.0826187 -0.096540563
15.715717 6.0638552 0.050307769
16.920128 7.5621958 0.76677364
16.514002 8.0975122 0.87864244
19.20096 8.2554588 0.1104429
16.826815 7.9711022 0.23167732
7.891829 4.4552794 -1.6661358
9.1363325 2.8539832 -1.560372
8.524662 3.7781448 -1.3685844
8.207016 3.9380836 -1.7427366
8.793355 3.4565868 -0.89590806
16.522131 8.5831366 0.35451823
16.50226 9.3439903 0.46850795
17.042011 6.0823932 -0.72516352
20.728069 8.2545891 -0.79597676
15.653324 5.9815712 -1.1439934
18.601547 8.2442961 -0.61294252
16.510941 8.0495224 -0.4238078
19.376678 8.2673244 -1.3935045
16.907198 7.9621749 -1.0889722
16.537884 8.856102 -0.34105814
16.526754 9.636694 -0.21405987
16.177011 8.3812208 -0.95550042
16.525736 9.3505392 -0.88416958
22.330799 7.9421721 0.66944617
17.44388 6.9405508 0.68459368
17.908337 6.1114378 -0.10081269
15.936323 6.091886 0.04829536
16.929169 7.5025458 0.7662884
16.530375 8.0412111 0.87827587
19.361177 8.2521801 0.10976905
16.953072 7.9659748 0.23182891
7.9160662 4.4361887 -1.6684932
9.1414862 2.824116 -1.5596693
8.5600109 3.761606 -1.3727534
8.2246437 3.9148233 -1.7439582
8.8208113 3.4354804 -0.89801294
16.52055 8.5165682 0.35426298
16.505404 9.2773705 0.46809208
8.5232286 3.7625268 -0.8325457
17.187275 6.0732322 -0.7320838
20.898794 8.2468042 -0.80300367
18.760983 8.2443399 -0.61884028
16.514565 7.9871411 -0.42298126
19.538538 8.263731 -1.4047556
16.944771 7.9149518 -1.0899445
16.510857 8.7750969 -0.33924174
16.543114 9.5766983 -0.21370684
16.542547 8.5041809 -0.97992116
16.530676 9.2848568 -0.88255715
22.351866 7.8706598 0.66936785
17.482327 6.8923411 0.68505359
18.113201 6.1176057 -0.10400863
16.073143 6.0865912 0.04712148
16.925186 7.4373035 0.76537865
16.521378 7.9726906 0.87688315
19.528934 8.2510786 0.10905828
17.097578 7.9686055 0.23200758
7.9265308 4.4094024 -1.6677074
9.1559668 2.7970953 -1.5607233
8.5899067 3.7425323 -1.3759604
8.2351341 3.8881259 -1.7435511
8.7889862 3.3911824 -0.89263397
16.518721 8.4500799 0.35400775
16.524006 9.2195988 0.46792573
8.5623522 3.7476022 -0.83590096
8.6119957 3.6332788 -1.1489681
8.203022 4.2083511 -1.0371226
17.394896 6.084877 -0.74241251
21.075264 8.2401972 -0.81030083
18.898611 8.2338943 -0.62376863
16.599014 7.9638247 -0.42525429
19.700577 8.2591848 -1.4160069
17.195704 7.9668164 -1.1073073
15.779217 8.3241129 -0.31410557
16.535011 9.5026932 -0.21273582
15.921556 8.1229324 -0.93338138
16.528402 9.2153206 -0.88048398
22.357599 7.7938223 0.66897613
17.500177 6.8359118 0.68495142
18.293619 6.1143222 -0.1067806
16.240034 6.0917635 0.045649469
16.928301 7.3753262 0.76471144
16.629217 7.9605484 0.88025504
19.693193 8.247447 0.10836598
17.227764 7.9636574 0.23216459
7.9403477 4.3844728 -1.6677074
9.1816883 2.7733884 -1.5638851
8.2597075 3.8680773 -1.7464014
9.0604172 3.1498511 -0.96720195
16.520201 8.3855085 0.35378441
16.51268 9.1453037 0.46728802
8.5485277 3.7096808 -0.83276945
8.6398182 3.6130328 -1.1515756
8.2126637 4.1807733 -1.0365829
17.559326 6.0803232 -0.75036567
21.264923 8.237648 -0.81822848
19.082241 8.2424364 -0.63071674
16.724953 7.9598851 -0.42911148
19.864607 8.2544813 -1.4274102
17.314861 7.9562058 -1.1145303
15.823015 8.2837505 -0.31469154
16.533548 9.432826 -0.21194141
16.53685 8.3704023 -0.97570187
16.538069 9.1526918 -0.87921715
21.958401 7.5779028 0.66020268
17.497337 6.7714877 0.68428713
18.470392 6.1087317 -0.10948737
16.399616 6.0931659 0.04425199
16.925676 7.3110495 0.76386237
16.756987 7.9572821 0.88443339
19.865004 8.2459383 0.10763676
17.381697 7.968852 0.23235679
7.954082 4.3595076 -1.6677074
9.201684 2.7478802 -1.565993
8.2682695 3.8404512 -1.7455869
9.0627527 3.1188102 -0.96622169
16.521437 8.3210106 0.35356107
16.495796 9.0682745 0.46656722
8.6456337 3.5836153 -1.1507064
8.2363853 4.160284 -1.0382022
17.737127 6.0793099 -0.75904179
15.807188 6.0592051 -0.55328035
19.229347 8.2342186 -0.63604903
16.861868 7.9603677 -0.43338203
20.039877 8.2533722 -1.4397258
18.051018 8.2270641 -1.1689801
15.918195 8.269845 -0.31697661
16.537022 9.366025 -0.21127944
16.548784 8.3112659 -0.97467905
16.528267 9.0794897 -0.87668335
21.876089 7.4728069 0.65800935
17.479342 6.7014046 0.68321407
18.672022 6.1101418 -0.11261807
16.529348 6.082531 0.04315263
16.928331 7.2492156 0.76319522
16.881281 7.9515834 0.88846511
20.036997 8.2434311 0.10690752
18.099882 8.2305393 0.23338816
7.9694629 4.3354311 -1.6681002
9.2216091 2.7222748 -1.5681009
8.2856226 3.8169312 -1.7468085
9.0807991 3.1090367 -0.96793711
16.511234 8.2834253 0.35335368
16.471464 9.0211678 0.46595728
8.658577 3.5730309 -1.1518652
8.2375908 4.1446848 -1.0373925
17.960375 6.1239891 -0.77071327
15.936085 6.0801325 -0.55904591
19.380199 8.2626143 -0.64210838
17.000885 7.9935827 -0.43820357
20.196808 8.2807217 -1.4515853
18.174677 8.2491474 -1.1774532
16.009344 8.2851486 -0.31955475
16.520391 9.3223085 -0.21048504
16.535025 8.2719059 -0.97276121
16.514503 9.0381422 -0.87484062
21.870754 7.4326658 0.65765685
17.467443 6.6653562 0.68260098
18.877541 6.1442995 -0.11597709
16.690918 6.1124907 0.04164334
16.913939 7.2116776 0.76234609
16.9046 7.9301662 0.88890487
20.198055 8.2724142 0.10616907
18.24753 8.2633286 0.23358849
7.9762626 4.3229079 -1.6681002
9.2372189 2.7110837 -1.5702088
8.2862759 3.8014476 -1.7455869
9.1112194 3.0874465 -0.97063291
16.528214 8.2270727 0.35327393
16.475142 8.9559727 0.46556914
8.6954308 3.5562296 -1.1559211
8.2576733 4.1223073 -1.0384721
24.630852 8.3020105 -1.1335621
16.050371 6.0662103 -0.56364048
19.547874 8.2614202 -0.64832944
17.121861 7.9850454 -0.44185418
20.38723 8.2838526 -1.4651171
18.342327 8.2560711 -1.1882876
16.113598 8.2748861 -0.32213277
16.532164 9.2605696 -0.21004368
16.435696 8.1579819 -0.96381122
16.516516 8.9718857 -0.87311304
21.992588 7.3969617 0.65969354
17.469604 6.6033564 0.68209004
19.050995 6.1344132 -0.11861862
16.856606 6.1134243 0.040189952
16.916245 7.1499758 0.76167893
16.911318 7.8685656 0.88817185
20.372263 8.2689219 0.10543061
18.391918 8.2593737 0.23376442
7.9880738 4.296906 -1.6677074
9.2835379 2.6929207 -1.5772352
8.3141966 3.7827425 -1.7492517
9.1397104 3.0650651 -0.9730835
16.523474 8.1600914 0.35300273
16.510231 8.9079752 0.46568
8.697381 3.5252006 -1.1544726
8.2652483 4.093719 -1.0376624
24.817919 8.278142 -1.1423415
16.164722 6.051621 -0.56823492
19.721258 8.2615538 -0.65479279
17.253832 7.980866 -0.44591808
20.570467 8.2828875 -1.4780408
18.484713 8.250596 -1.1971774
16.228643 8.269474 -0.32506239
16.538477 9.1959181 -0.2094699
16.461245 8.1063023 -0.96381122
16.505989 8.8990507 -0.87057924
22.044188 7.3372684 0.66028106
17.469675 6.5406961 0.68152797
19.266512 6.1367869 -0.12197764
17.033752 6.1174417 0.038624778
16.916487 7.087553 0.7609511
16.905127 7.8011155 0.88692576
20.580067 8.2777996 0.104526
18.560202 8.265192 0.23397557
7.9946036 4.2681131 -1.6661358
9.312789 2.6696525 -1.5810997
8.3296051 3.7582221 -1.750066
9.1624928 3.0406792 -0.97479892
16.534651 8.1011238 0.35287511
16.457098 8.8125257 0.46440464
8.7212811 3.5029886 -1.1565005
8.5995331 3.7906969 -1.1104422
8.2940979 4.0755548 -1.0400912
18.516285 6.1185999 -0.79787791
16.324074 6.0531197 -0.57499146
19.89299 8.2599239 -0.66117531
17.418619 7.9909902 -0.4512217
15.619029 6.2389569 -1.0696511
18.645475 8.2524147 -1.2074562
16.32774 8.2553301 -0.32746464
16.534046 9.125514 -0.20863132
16.533289 8.0772648 -0.96713549
21.924631 7.2212267 0.65734351
17.64003 6.541605 0.68561566
19.482225 6.1378751 -0.1253366
17.162125 6.102922 0.037544038
16.933125 7.032084 0.76076913
16.893225 7.7312846 0.8854596
20.736082 8.2647915 0.10387984
18.701273 8.2578888 0.23414612
8.0201206 4.2493696 -1.6688859
9.3400869 2.645699 -1.5846128
8.3556509 3.7384748 -1.7533236
9.1965389 3.0198617 -0.97798479
16.533022 8.0360594 0.35263583
16.477648 8.7570133 0.46429378
8.7414465 3.4792042 -1.1579491
8.593276 3.7556787 -1.1076411
8.2854567 4.0391154 -1.0368528
18.966549 6.2007222 -0.82132411
16.457354 6.0439863 -0.58048677
20.051966 8.2519798 -0.66699237
18.112753 8.2417431 -0.47656929
15.621857 6.1832747 -1.0682827
18.786346 8.2444496 -1.216207
16.455523 8.2549429 -0.33080441
16.506563 9.0427027 -0.20721905
16.540611 8.0166006 -0.96585697
16.188004 8.5961094 -0.8461628
21.852119 7.1214352 0.65538514
17.804934 6.5394258 0.68955004
19.70005 6.1382518 -0.12872823
17.364101 6.1136537 0.035736639
16.973635 6.9864306 0.76137567
16.910158 7.6748567 0.88516641
20.940605 8.2699194 0.1029937
18.847979 8.2521858 0.23432478
8.0316935 4.2232428 -1.6684932
9.3730211 2.623173 -1.5891799
8.3548422 3.7066104 -1.7504733
9.2248745 2.9970396 -0.98043549
16.53475 7.9728231 0.35242844
16.482098 8.6930466 0.46393335
8.7560186 3.4531682 -1.1585284
8.6141062 3.7326274 -1.1090417
8.3088226 4.0182142 -1.0384721
18.968824 6.1356001 -0.82039452
16.64328 6.0532823 -0.58850467
20.248106 8.2581758 -0.67442524
18.2824 8.249938 -0.48201072
15.624482 6.1276422 -1.0669142
18.954775 8.2476654 -1.2270415
16.5154 8.2200851 -0.3319177
16.53138 8.9888916 -0.20713083
16.639513 7.9999542 -0.97109896
16.306711 8.593751 -0.85215175
21.880093 7.0545878 0.65550262
17.973749 6.537653 0.69358659
18.581711 5.7273855 -0.10932432
17.539886 6.1139317 0.034190089
17.038092 6.9503818 0.76277065
16.919613 7.6151142 0.88457996
21.119268 8.2636786 0.10223678
19.011328 8.2528372 0.2345278
8.0414391 4.196187 -1.6677074
9.4059019 2.6004708 -1.593747
8.3771858 3.6851075 -1.7529165
9.2569408 2.9752691 -0.98337626
16.64818 7.9629936 0.35321009
16.477459 8.6244812 0.46343428
8.7612896 3.4234953 -1.1576594
8.3249846 3.9937935 -1.0390117
18.993719 6.0777912 -0.82070434
16.821915 6.0587411 -0.5961622
20.407413 8.2482767 -0.68024224
18.426756 8.245677 -0.48648793
15.630637 6.0734859 -1.0658499
19.10327 8.2411757 -1.236348
16.535767 8.1655073 -0.33174187
16.506792 8.9083452 -0.20580678
16.778137 8.0016041 -0.97915405
16.377831 8.56567 -0.85503101
21.947886 7.0003395 0.65644264
18.144611 6.5355549 0.69767427
18.429302 5.6173143 -0.1064219
17.71018 6.1111917 0.032699421
17.187801 6.9483342 0.76695561
16.919744 7.5512948 0.88362706
21.307432 8.2599897 0.1014337
19.167526 8.2493649 0.23471999
8.0563269 4.1717978 -1.6681002
9.4577436 2.5827193 -1.6018274
8.3958931 3.6619213 -1.7545452
9.3116789 2.9604871 -0.98925769
16.761711 7.952538 0.35399181
16.477871 8.5588131 0.46301842
8.7756958 3.3973744 -1.1582388
8.3536148 3.9752398 -1.0414404
19.026051 6.0222955 -0.82142746
16.97817 6.0550594 -0.60273862
20.585417 8.2448769 -0.68686718
18.584038 8.2462893 -0.49144715
15.625433 6.0150781 -1.0638734
19.272076 8.2424994 -1.2471825
16.539778 8.1029987 -0.33103883
16.525888 8.8517141 -0.20558612
16.907906 7.9982138 -0.9865697
16.468414 8.5473814 -0.85917723
22.084227 6.9673271 0.65879273
18.321278 6.5344787 0.7019152
18.393227 5.5433092 -0.10550876
17.886297 6.1093969 0.031152889
17.352512 6.9513483 0.77162576
16.928768 7.4916148 0.88304061
15.709211 6.0404391 0.12922744
19.34411 8.2536592 0.23494197
8.0711393 4.1473598 -1.6684932
9.4848318 2.5580728 -1.6053405
8.4145355 3.6386569 -1.7561738
9.3739967 2.9477527 -0.99611962
16.90793 7.9567294 0.35506064
16.495794 8.5024137 0.46287984
8.6609631 3.4551315 -0.83344036
8.8085213 3.3782322 -1.1617153
8.3552952 3.9439325 -1.0398213
19.088734 5.9761653 -0.82380295
17.164694 6.061141 -0.6107564
20.772886 8.2441149 -0.69389611
18.748819 8.2492247 -0.49668199
15.6312 5.961009 -1.0628091
19.437403 8.2412777 -1.2577389
16.541759 8.0396719 -0.33027709
16.541264 8.793169 -0.20527719
17.034199 7.9923949 -0.99372965
15.641985 8.0546637 -0.8037796
22.296955 6.9572659 0.66270941
18.498119 6.5323567 0.70615613
18.410549 5.4855008 -0.10550876
18.060686 6.1059127 0.02962495
17.498819 6.9460468 0.77568942
16.939417 7.4327574 0.88252747
15.995528 6.0924511 0.12790745
19.500658 8.2483282 0.23513417
8.0788784 4.1193271 -1.6673144
9.5080528 2.5322776 -1.608151
8.4259243 3.6122053 -1.7561738
9.373724 2.9153688 -0.99489427
17.028954 7.9482746 0.35590613
16.488617 8.4332037 0.46235305
8.6865768 3.4337111 -0.83522993
8.8339043 3.3561261 -1.1640329
8.3766279 3.9218423 -1.0411706
19.290651 5.9726458 -0.83371866
17.336342 6.0608144 -0.61805344
20.964275 8.2437124 -0.70108658
18.89732 8.2439899 -0.50129694
15.782379 5.9617057 -1.0736042
19.602911 8.2391014 -1.2682956
16.541706 7.9755497 -0.32945681
16.498114 8.7037449 -0.20351179
17.17873 7.9942603 -1.0021681
15.855536 8.102067 -0.81598783
22.525131 6.9506378 0.6669395
18.673237 6.5285258 0.71034598
18.395065 5.4180784 -0.10495438
18.244703 6.1045785 0.02800387
17.662018 6.946455 0.78029883
16.90407 7.3539119 0.88018179
16.140034 6.0892854 0.127289
19.672106 8.2483015 0.23534803
8.0952845 4.0956893 -1.6681002
9.5502596 2.5113199 -1.6144748
8.4498291 3.5911155 -1.7590241
17.180971 7.9533606 0.35702279
16.491869 8.3695498 0.46199262
8.6973248 3.4063978 -0.83522993
8.8703632 3.3380363 -1.1680888
8.3997097 3.9004784 -1.0427898
18.554647 5.6819992 -0.79292011
17.525146 6.0653572 -0.62616134
21.168913 8.2472315 -0.70884264
19.04598 8.2378845 -0.50591183
15.92251 5.9573188 -1.083487
19.764925 8.2344065 -1.2785745
16.667751 7.9716911 -0.33273798
16.534239 8.6565094 -0.20373251
17.314383 7.9911089 -1.0099674
15.973454 8.0992928 -0.82197678
22.776445 6.9495983 0.67163956
18.859852 6.5275784 0.71484244
18.3659 5.3468947 -0.10417168
18.447874 6.1084423 0.026196459
17.817944 6.942997 0.78466576
16.934429 7.3039336 0.88047498
16.303425 6.092227 0.12657823
19.827143 8.2403297 0.23553751
8.10285 4.067606 -1.6669217
9.5790815 2.4866836 -1.6183393
8.6198063 3.832478 -1.3056535
8.461072 3.5645454 -1.7590241
17.304077 7.9442735 0.35788423
16.489523 8.3032703 0.46154904
8.7191095 3.3833418 -0.83657187
8.8808041 3.3101549 -1.1680888
8.4173288 3.8765442 -1.0435995
18.4175 5.5770044 -0.78455377
17.772711 6.088944 -0.63706195
21.327139 8.2316303 -0.71457887
19.207634 8.236475 -0.51100892
16.085215 5.9604073 -1.0951945
19.94368 8.2356672 -1.2901034
16.793926 7.9671354 -0.33601922
16.540071 8.5934324 -0.20320283
17.484676 8.0029335 -1.020196
16.086153 8.0931721 -0.82762015
23.03754 6.9499469 0.67653549
19.080666 6.5372477 0.72025871
18.411448 5.2974281 -0.10466085
18.639845 6.1073542 0.024500851
17.97588 6.9393606 0.78909332
16.920559 7.2349315 0.87900889
16.472616 6.0962906 0.12583977
20.019279 8.2467642 0.23578115
8.1191025 4.0438704 -1.6677074
9.6383772 2.4696398 -1.6278249
8.6281891 3.803776 -1.3050454
8.4812517 3.5417464 -1.7610601
17.482155 7.9925327 0.35933593
16.472176 8.2620745 0.46107769
8.7392626 3.3753302 -0.83836144
8.4270144 3.8649604 -1.0441391
18.387974 5.5366054 -0.78248805
17.961826 6.1225057 -0.64562035
15.806575 6.0795693 -0.47503054
19.365692 8.2684803 -0.51645035
16.223726 5.9825468 -1.1056854
20.074633 8.253026 -1.2989932
16.934835 8.0012035 -0.3401792
16.526932 8.5536194 -0.20254086
18.171425 8.2816715 -1.0676308
16.191601 8.1145477 -0.8336091
23.274509 6.9813042 0.68115717
19.208189 6.5474148 0.72342658
21.562546 6.1628103 -0.15794821
18.812868 6.1315813 0.022898391
18.132385 6.9668479 0.79382414
16.924549 7.205204 0.87871569
16.585447 6.108274 0.12533207
20.157976 8.2670631 0.23596522
8.1272039 4.03198 -1.6681002
9.6479721 2.4559405 -1.6288787
8.6431923 3.7942171 -1.3065656
8.4886093 3.5291777 -1.7614673
18.176064 8.2397509 0.36519054
16.489103 8.205821 0.46093905
8.7535381 3.3492699 -0.83880883
8.4264717 3.8327606 -1.04225
20.207375 6.0125999 -0.87968159
18.14749 6.1224813 -0.653548
15.96947 6.0844512 -0.48125154
19.520355 8.2622995 -0.52127194
20.286987 8.2661839 -1.3130224
17.054079 7.9919467 -0.34322602
16.52173 8.4851732 -0.20174645
18.332022 8.2852011 -1.0770923
16.313488 8.1117868 -0.83982837
18.507797 5.4937658 0.58335662
19.429386 6.5550447 0.72884274
21.80126 6.1567483 -0.16166596
19.033712 6.1377759 0.02092327
18.31307 6.9700856 0.79897952
16.925016 7.1426444 0.87783605
16.766228 6.1148396 0.12453823
20.343113 8.2686539 0.23619802
8.1556883 4.0141773 -1.6716363
9.6976786 2.436064 -1.6366078
8.5195465 3.5107567 -1.7659464
18.34057 8.2447519 0.36640292
16.491507 8.1424389 0.46057868
8.7807589 3.3280478 -0.84082192
8.4746437 3.8224657 -1.0476474
18.3428 6.124527 -0.66192627
16.072685 6.0658798 -0.48488718
19.68438 8.2591076 -0.52643788
20.44784 8.2571068 -1.3231623
17.216969 8.002183 -0.34767908
16.493113 8.4050074 -0.20037828
18.476412 8.2804775 -1.0854028
16.442671 8.1118841 -0.84650826
18.532644 5.4378405 0.58351332
22.065193 6.1562037 -0.16580762
19.233829 6.1359296 0.01915315
18.473364 6.9645247 0.80346763
16.906834 7.0724163 0.87622339
16.928389 6.1135616 0.1238367
20.52845 8.2691593 0.23643082
8.1576691 3.9834044 -1.6692789
9.7263174 2.4107432 -1.6404722
9.0347624 3.3739557 -1.4205365
8.5413971 3.4884484 -1.7683897
18.485186 8.2398615 0.36743987
16.488295 8.0764694 0.46013504
8.794898 3.3018303 -0.84126931
8.741868 3.4820294 -1.1121229
8.4594431 3.7837598 -1.0435995
18.496586 6.1115508 -0.66832244
16.230261 6.0669227 -0.49086583
19.857801 8.2588043 -0.53194821
20.629206 8.25527 -1.33483
17.32741 7.987268 -0.35043287
16.426718 8.306098 -0.1980833
18.630085 8.2789602 -1.094353
16.505714 8.0786695 -0.8489269
18.565006 5.3840208 0.5838266
19.819351 6.5486884 0.73824441
22.344769 6.1582837 -0.1702102
18.316954 5.7787614 0.02830201
17.511469 6.5405979 0.77162576
16.917898 7.0146527 0.87578356
17.107666 6.1173544 0.12305208
20.710287 8.267087 0.23665822
8.1683769 3.9569046 -1.6688859
9.7740326 2.3898897 -1.64785
8.5595665 3.4645545 -1.7700183
9.3840437 3.0247979 -0.94431764
18.639095 8.2381821 0.36855656
16.502796 8.0193729 0.45996869
8.8238745 3.2810612 -0.84350604
8.7527647 3.4545505 -1.1121229
8.5075636 3.7731338 -1.0489967
18.707415 6.1163783 -0.67742133
16.359869 6.0566759 -0.49563253
20.018482 8.2521544 -0.5369764
20.833004 8.2612352 -1.3481647
17.856359 8.1623478 -0.36666304
16.517023 8.2868233 -0.19967212
18.793062 8.2805786 -1.1039422
16.527418 8.0250282 -0.84869659
24.344954 6.9690385 0.7012108
20.010788 6.5425248 0.74284303
22.599474 6.1518769 -0.17418879
18.291124 5.7074308 0.028730569
16.974955 6.9759564 0.87717634
17.249409 6.1067939 0.12245208
20.877436 8.2580576 0.23686396
8.1966963 3.9388239 -1.6724221
9.8178816 2.3678503 -1.6545248
8.5704088 3.4376483 -1.7700183
9.3935003 2.9953043 -0.94431764
18.785851 8.2324162 0.36960942
16.509907 7.9587817 0.45969146
8.8360052 3.2540073 -0.84372979
8.7525196 3.4226799 -1.1104422
8.5339041 3.7527311 -1.0511556
18.899454 6.1137681 -0.68561935
16.515858 6.0552673 -0.50153035
20.205208 8.2551899 -0.54296887
15.858453 6.2243204 -0.97396046
18.208029 8.2535295 -0.37715107
16.523298 8.2250681 -0.19918664
18.947083 8.2772732 -1.1128922
16.60288 7.9974027 -0.85192132
24.616934 6.9630251 0.70630252
21.560078 6.9762597 0.78392422
22.89686 6.1553054 -0.17888488
18.261209 5.6351352 0.0291964
17.822655 6.5290995 0.78035951
17.043034 6.9415097 0.87900889
17.446011 6.1145082 0.12158439
21.07823 8.2612362 0.23711841
8.2054853 3.9113781 -1.6716363
9.8521051 2.3433063 -1.6594435
8.595706 3.4165356 -1.773276
9.3952932 2.9633663 -0.94338208
18.967621 8.2408972 0.37096539
16.605145 7.9406176 0.46077275
8.866744 3.2336633 -0.84619027
8.7835188 3.4030893 -1.1135235
8.5547476 3.7298348 -1.0525049
19.106876 6.114892 -0.694538
16.703947 6.064477 -0.50880164
20.392153 8.257123 -0.54896134
15.864923 6.1693826 -0.97298819
18.379827 8.2616615 -0.38183844
16.534727 8.1660099 -0.1988336
19.103102 8.2738609 -1.1219699
16.737749 7.9978652 -0.85894692
24.88719 6.9548221 0.71135509
21.772238 6.9696574 0.78903377
23.169355 6.1502719 -0.18315698
18.288383 5.5806651 0.029103231
17.997252 6.5287623 0.78533292
17.199978 6.9427295 0.88436002
17.605024 6.1079793 0.12090132
21.266211 8.2581406 0.23735392
8.2212839 3.8872442 -1.6724221
9.9016151 2.3221228 -1.6671723
8.6063986 3.3895121 -1.773276
19.103687 8.2285938 0.37192255
16.729322 7.9356866 0.46229762
8.8787308 3.2064588 -0.84641391
8.5846357 3.7107503 -1.0552034
19.339245 6.1226444 -0.70462787
16.877201 6.0671754 -0.51542658
20.583015 8.2594566 -0.55509162
15.770725 6.0755796 -0.96451515
18.52993 8.259057 -0.38582271
16.536976 8.1025496 -0.19825985
19.255617 8.2679796 -1.1307921
16.867374 7.9949851 -0.86562681
25.07666 6.9227223 0.71476263
22.009336 6.9696655 0.79480755
23.461391 6.1486349 -0.18775524
18.344105 5.5347829 0.028730569
18.196495 6.5361447 0.79109484
17.355244 6.9422865 0.88963795
17.771738 6.1031003 0.12018133
21.467438 8.2589865 0.23760837
8.2281218 3.8589118 -1.6712433
9.9568491 2.3019671 -1.6759553
8.6352262 3.3696239 -1.7773478
19.254578 8.2217922 0.37300733
16.8699 7.937746 0.46407199
8.9299717 3.193161 -0.85133499
8.5743656 3.6744583 -1.0519651
20.332298 6.3682055 -0.75066268
17.039331 6.0648503 -0.52156675
20.761093 8.255496 -0.5607397
15.897784 6.0674353 -0.97257155
18.685684 8.2580166 -0.38998282
16.499449 8.0198774 -0.19671513
19.426651 8.2690248 -1.1408927
17.009781 7.9973421 -0.87311304
25.518959 6.9581733 0.72330105
22.239014 6.9658642 0.80037701
23.743959 6.1427412 -0.19219039
18.3001 5.4587536 0.02932683
18.352613 6.5269995 0.79546171
17.506956 6.9394665 0.89476919
17.967009 6.1068578 0.11932287
21.667007 8.2579451 0.23786013
8.2455454 3.8355112 -1.6724221
9.9909201 2.2767336 -1.6808738
8.6567144 3.3467481 -1.7797909
19.431412 8.2250051 0.37431544
17.003412 7.9356074 0.46573544
8.9343328 3.1631176 -0.85066384
20.062223 6.2140889 -0.73696935
17.214815 6.0661955 -0.52827251
20.946781 8.253437 -0.56666332
15.927958 6.0217142 -0.97340494
18.836115 8.2536802 -0.39396709
16.558756 7.9845548 -0.19755365
19.588682 8.2652092 -1.1503541
17.132475 7.989572 -0.8793323
25.542624 6.8784914 0.72334027
22.486065 6.9660311 0.80640638
24.05579 6.1425219 -0.19711475
18.31716 5.4012389 0.02932683
18.548471 6.5308261 0.80110228
17.656961 6.9350286 0.89982718
18.156786 6.1075425 0.1184921
21.863039 8.2543135 0.23810646
8.2593365 3.810406 -1.672815
10.032622 2.2530153 -1.6871974
8.6690121 3.3202429 -1.7801981
19.6103 8.2279568 0.3756395
17.133446 7.9310226 0.46734351
9.0118103 3.1585174 -0.85871643
8.6759071 3.653368 -1.0635693
18.525288 5.6722126 -0.66354775
17.413124 6.0743632 -0.53594774
21.115913 8.2437296 -0.57196707
15.933724 5.9667301 -0.97243255
18.995874 8.2524481 -0.39824432
16.69191 7.9844184 -0.20020168
19.754564 8.2619905 -1.1600713
17.269772 7.9878354 -0.88647294
30.172276 8.0188112 0.81671494
22.733335 6.9647131 0.81243563
24.36397 6.13943 -0.2019739
18.345549 5.347043 0.02921504
18.725647 6.5269318 0.80613637
17.820141 6.9348059 0.90539825
18.363831 6.1127558 0.11757825
8.2873363 3.7917385 -1.6763508
10.080042 2.2303181 -1.6945751
9.4752979 2.62375 -1.5406622
9.4454432 3.2582941 -1.4769782
8.6867151 3.2957928 -1.781827
9.4768181 2.8263021 -0.94782549
19.76354 8.2191296 0.37674025
17.281794 7.934051 0.4692288
18.447451 5.5848975 -0.65904343
17.657021 6.09692 -0.54556197
15.762088 6.0894709 -0.37311268
15.993526 5.9319582 -0.97548848
19.137449 8.2423906 -0.4019357
16.787327 7.965456 -0.20192297
19.93907 8.2654114 -1.1710669
17.441702 8.0011616 -0.8958019
30.501053 8.0033894 0.82286417
22.976999 6.9607258 0.81836283
24.701487 6.1416459 -0.20732217
18.398762 5.2999363 0.02886102
18.872732 6.5115762 0.81019998
17.985363 6.9343309 0.91104263
18.495075 6.0917845 0.11703364
16.397194 6.0662742 0.23013975
8.2974224 3.7648728 -1.675958
10.075454 2.1961453 -1.6924672
9.5100946 2.6013131 -1.545399
8.7098455 3.2733374 -1.7846773
9.5142069 2.8050182 -0.95133346
19.93911 8.2185564 0.37803242
17.5249 7.9794617 0.47255576
18.384542 5.5027471 -0.65525973
17.819866 6.0903411 -0.5517022
15.848305 6.0657506 -0.37559235
16.150593 5.932806 -0.98576719
19.310411 8.2448502 -0.40662307
16.933397 7.9698997 -0.20487995
20.110859 8.2624817 -1.1811677
18.135155 8.2515106 -0.9381851
30.897781 8.0035038 0.83038425
23.207451 6.9512668 0.82393229
25.039255 6.1418257 -0.21267049
21.468653 6.1157594 -0.00072842999
18.14142 6.9293261 0.9163205
18.710066 6.0972223 0.11608288
22.431612 8.2288895 0.2388157
8.3127899 3.7403884 -1.6767437
10.061116 2.1599913 -1.6886027
9.5239248 2.5729833 -1.546414
9.4226789 3.1844525 -1.4696022
8.725584 3.2480247 -1.7858988
9.5376472 2.7957075 -0.95367211
20.085274 8.2417326 0.379181
18.1399 8.2260895 0.48173267
18.402735 5.4767261 -0.6557101
18.005449 6.1219282 -0.55921584
15.947416 6.075141 -0.3788985
16.304102 5.9603949 -0.99646276
19.455872 8.2706566 -0.4108417
17.030935 7.9832969 -0.20695429
20.288303 8.2979336 -1.1925468
18.284414 8.2849979 -0.946823
31.286081 8.051342 0.83798277
18.475409 5.4967389 0.69741881
25.379246 6.1826229 -0.21821447
21.726377 6.1526108 -0.0031321
19.291405 6.5539045 0.8226335
18.30913 6.9606905 0.92247802
18.894726 6.1243305 0.11523365
22.436998 8.1908932 0.23880488
8.3258219 3.7305133 -1.6783153
10.060643 2.1433742 -1.6878999
9.5488796 2.5636973 -1.5501357
9.3902111 3.1571641 -1.4631884
8.7325115 3.2350013 -1.786306
9.5654469 2.7713096 -0.95601076
20.300121 8.2552156 0.38080817
18.307831 8.2332258 0.48389518
9.3739367 3.0305994 -1.2228436
8.9747791 3.236495 -1.1306103
20.399059 6.0040612 -0.74877083
18.185656 6.1192899 -0.56608313
16.054266 6.0583158 -0.38213587
16.463369 5.9602957 -1.0068805
19.623684 8.2690992 -0.41535336
17.19545 7.9948587 -0.21035261
20.449364 8.2887316 -1.2018805
18.432304 8.2825069 -0.95453954
31.68922 8.048708 0.84562033
18.442734 5.4239383 0.69609028
25.717497 6.1791706 -0.22356276
