# .PCD v0.7 - Point Cloud Data file format
VERSION 0.7
FIELDS x y z
SIZE 4 4 4
TYPE F F F
COUNT 1 1 1
WIDTH 1452
HEIGHT 1
VIEWPOINT 0 0 0 1 0 0 0
POINTS 1452
DATA ascii
-2.7210069 14.320822 -0.62975484
-0.12816645 7.3571639 0.34933245
-0.36776656 7.3765063 0.39355147
-0.031705651 7.4139166 0.086867072
-0.26822466 7.3665581 0.13857296
-0.68370789 7.3666368 0.42894572
-1.877398 14.85659 0.75329304
-0.57929641 7.3679018 0.17279652
-1.6888674 14.988509 0.22689134
-1.2389283 6.6179261 -1.1993881
-1.5629159 6.5962181 -1.1200086
-1.3771514 6.6387949 -1.5804515
-1.7280374 6.6401501 -1.5188626
0.17110151 6.6102586 -1.0323423
-0.15816429 6.6386561 -0.99288213
0.32169533 6.6381426 -1.3887303
-0.01468957 6.6648664 -1.359292
-0.58214986 6.5625019 -0.924106
-0.92698681 6.7668285 -0.90519786
-0.44482821 6.6131043 -1.2892485
-0.77695537 6.6393867 -1.2398567
-0.11074787 7.4160285 -0.69861144
-0.32614958 7.4211383 -0.65807009
-2.0894566 13.852016 0.31774741
-2.633579 14.080316 0.40418643
-1.7406871 13.978366 -1.2692493
-0.55267918 7.2144194 -0.83984983
-0.81025678 7.4609303 -0.84265357
-1.2155699 7.3202305 -0.53107482
-1.1458746 7.5296454 -0.81880307
-1.3992313 7.543169 -0.77745891
-0.11111223 7.3943958 -0.17185266
-0.34475991 7.3683772 -0.1225706
-0.0047552502 7.4415908 -0.43434471
-0.24603879 7.4117846 -0.38747865
-0.66795564 7.4412708 -0.092399612
-0.91113955 7.449574 -0.049449131
-0.56204957 7.412981 -0.35413262
-1.2305903 7.4436622 -0.01235454
-1.4794403 7.4525218 0.040506329
-1.1398876 7.5352559 -0.27658105
-2.6645348 14.268476 -0.62618458
-0.10511848 7.3635278 0.34944999
-0.34499347 7.3856139 0.39375585
-0.0084248995 7.4099798 0.086932302
-0.24508201 7.3673649 0.13857296
-0.65919107 7.3528147 0.42846051
-0.92183572 7.5879021 0.48441517
-0.55629158 7.3716798 0.17278728
-1.6508402 15.075238 0.22700232
-1.2188272 6.6256452 -1.200174
-1.5421867 6.6010952 -1.1200086
-1.3562894 6.6430888 -1.5804515
-1.7115849 6.662467 -1.5231256
0.19212557 6.6175594 -1.0337476
-0.13726041 6.6371503 -0.99254382
0.34297895 6.6448803 -1.3905376
0.0062243999 6.6726818 -1.3610611
-0.56201315 6.5702014 -0.92506802
-0.90329856 6.7520819 -0.90246117
-0.42405161 6.6144686 -1.2892485
-0.75563651 6.6379056 -1.2390424
-0.099158064 7.4221482 -0.69934666
-0.31531215 7.4394989 -0.66017479
-1.1383299 7.5475826 0.26689044
-2.6136684 14.096229 0.40435278
-0.64677751 7.3166852 -0.61065388
-1.7423764 14.170555 -1.2893732
-0.54106486 7.2113314 -0.83927047
-0.79701424 7.4484158 -0.84069282
-1.1380836 7.5588841 -0.82258117
-1.3844594 7.5297613 -0.7754007
-0.099537402 7.3985558 -0.17205922
-0.3335751 7.3768916 -0.12293091
0.00692453 7.4395962 -0.4341712
-0.23453683 7.4161468 -0.38780153
-0.65222019 7.3945212 -0.090460613
-0.90978694 7.534306 -0.052342068
-0.54970193 7.4039087 -0.35337242
-1.6341883 15.022255 -0.83991927
-1.2195295 7.4495335 -0.01247171
-2.7715971 13.959835 -0.10593103
-1.1297827 7.5488877 -0.27734816
-2.6384506 14.253016 -0.62503284
-0.093497507 7.357686 0.34933245
-0.33280939 7.3741641 0.39344928
0.0031824401 7.4019856 0.087062746
-0.23365061 7.3717375 0.13853568
-0.64881968 7.3677845 0.42888504
-0.90893763 7.5814066 0.48412198
-0.54597527 7.3905001 0.1727042
-0.8059625 7.588707 0.21680504
-1.2063531 6.6159682 -1.1978166
-1.5295588 6.5939431 -1.1181695
-1.3447214 6.6395092 -1.5789638
-1.6967291 6.6482191 -1.5188626
0.20197593 6.6015086 -1.0309371
-0.12674451 6.6334162 -0.99186707
0.35297129 6.6365533 -1.3887303
0.01672418 6.6590109 -1.3579651
-0.55122036 6.5651722 -0.924106
-0.89509064 6.7711215 -0.90519786
-0.4134331 6.6112247 -1.2883991
-0.7461133 6.6468635 -1.240671
-0.075811483 7.4184523 -0.69885647
-0.29159743 7.4325151 -0.65923935
-1.1191756 7.5827932 0.26714569
-1.3364956 7.40553 0.30992219
-0.62896299 7.3820682 -0.61781168
-1.7139342 14.308247 -1.3034179
-0.51813561 7.2090468 -0.83869112
-0.77318555 7.4469433 -0.84013242
-2.2026107 13.806792 -1.1906264
-2.7524114 14.022824 -1.1299818
-1.1112247 7.5408463 -0.81961262
-1.3586401 7.5223713 -0.773857
-0.076278001 7.3968344 -0.17195593
-0.30966812 7.3619366 -0.12221023
0.030328861 7.443522 -0.43451816
-0.21110761 7.4128618 -0.38747865
-0.6291467 7.3985257 -0.090541378
-0.88490963 7.527205 -0.05199768
-0.52778137 7.4254956 -0.35489282
-1.5767606 14.932093 -0.83325189
-2.1963935 13.82654 -0.20154953
-1.4512658 7.4947214 0.039711919
-1.1043645 7.5405445 -0.27658105
-2.5936561 14.261234 -0.62503284
-0.070416272 7.3639412 0.34944999
-0.30972996 7.3771701 0.39350039
0.026495131 7.4099374 0.086932302
-0.2104243 7.3704362 0.13855432
-0.62469524 7.357832 0.42852116
-0.88368267 7.5723186 0.4836821
-0.52168 7.3762155 0.17277804
-0.77555156 7.5295501 0.21672113
-1.1855605 6.6197257 -1.1978166
-1.506606 6.5891414 -1.1163304
-1.3260826 6.6551108 -1.5819392
-1.681132 6.6742239 -1.524073
0.22293836 6.6067433 -1.031991
-0.10602012 6.6396937 -0.99288213
0.37428954 6.6431904 -1.3905376
0.037645832 6.6589251 -1.3579651
-0.53074193 6.5688396 -0.92442667
-0.87042761 6.7484264 -0.901245
-0.39276761 6.6144428 -1.2888237
-0.72434658 6.6413922 -1.2390424
-0.052457049 7.4047594 -0.69714105
-0.26793319 7.4254556 -0.65830392
-1.0945123 7.5803308 0.26709783
-2.5211332 14.090725 0.40404785
-0.60530317 7.3780642 -0.61714065
-1.6820774 14.42417 -1.3151567
-0.49445802 7.1948409 -0.83637333
-0.74896729 7.4414577 -0.83901209
-2.1574054 13.801845 -1.1894262
-2.7026324 14.002085 -1.1271722
-1.0902908 7.5639234 -0.82231128
-1.3367677 7.5363593 -0.77514344
-0.053019259 7.3910465 -0.17164607
-0.28653982 7.3628731 -0.12221023
0.05371182 7.4433904 -0.43451816
-0.18776229 7.4114962 -0.38731718
-0.60590184 7.400465 -0.090541378
-0.86032349 7.5220075 -0.05172215
-0.50252956 7.3972654 -0.35261223
-0.75113642 7.4616151 -0.31000507
-1.1736094 7.462976 -0.01264746
-2.6811645 13.963233 -0.10562207
-1.0795661 7.5360694 -0.27606958
-2.5477791 14.263417 -0.62468731
-0.047288619 7.3661265 0.34948915
-0.28680769 7.3840995 0.39365366
0.049772669 7.4098177 0.086932302
-0.18767466 7.3850546 0.13842389
-0.60048735 7.3458061 0.42809659
-0.86221254 7.5949078 0.48441517
-0.49850568 7.3778172 0.17277804
-0.75415492 7.553833 0.2167509
-1.1634308 6.6156869 -1.1962451
-1.4854599 6.5919261 -1.1159626
-1.3033426 6.6497297 -1.5794595
-1.6482619 6.6323733 -1.5122315
0.2440933 6.6158462 -1.0337476
-0.085062653 6.6340814 -0.99186707
0.39564991 6.6497602 -1.392345
0.05862128 6.6704764 -1.3606188
-0.51082909 6.5803189 -0.92603016
-0.84922373 6.7511272 -0.901245
-0.37168089 6.6097889 -1.2875496
-0.70326602 6.6416888 -1.2386353
-0.029198861 7.4207673 -0.69910163
-0.2446744 7.4282455 -0.65853775
-1.0687804 7.5698643 0.26698616
-1.2871416 7.3980293 0.30970037
-0.581074 7.366056 -0.61557484
-1.7057475 15.028083 -1.3786726
-0.4716056 7.19241 -0.83579397
-0.72578245 7.4457445 -0.83929223
-2.1146259 13.812489 -1.1898263
-2.6619992 14.028108 -1.128858
-1.0624723 7.5378628 -0.81826329
-1.30892 7.5170889 -0.77205604
-0.029799361 7.3951707 -0.17185266
-0.26316977 7.3577471 -0.12193999
0.077125289 7.4451771 -0.43469167
-0.16468026 7.4200201 -0.38796294
-0.58369637 7.4162822 -0.091106936
-0.83440894 7.5048156 -0.051033359
-0.48026124 7.414732 -0.35382852
-0.72588485 7.4460721 -0.30875498
-1.1578922 7.5180254 -0.01417087
-1.3989036 7.4761953 0.040329799
-1.0569637 7.5473342 -0.27658105
-2.4987717 14.24776 -0.62330526
-0.02414793 7.3542409 0.34925413
-0.26337132 7.3789711 0.39350039
0.072892733 7.3976278 0.087127969
-0.16452238 7.3876071 0.13840526
-0.57605857 7.3297157 0.42755073
-0.8378942 7.5936084 0.48426855
-0.47435078 7.3633771 0.17285189
-0.71268475 7.3790512 0.21650998
-1.1400305 6.6038399 -1.193102
-1.4625739 6.5869732 -1.1141235
-1.2817249 6.6499844 -1.5784678
-1.6302351 6.6488318 -1.5150734
0.26444578 6.6052122 -1.031991
-0.064245537 6.6362863 -0.99220538
0.41615236 6.642652 -1.3909895
0.079516083 6.6624579 -1.3588498
-0.48890245 6.564168 -0.92314386
-0.82577586 6.7361116 -0.89850831
-0.35081598 6.6089721 -1.2871249
-0.68177223 6.6380239 -1.2374135
-0.0059140599 7.4108982 -0.69787627
-0.22147027 7.4329476 -0.65900552
-1.1449831 8.3164644 0.27296841
-1.2645819 7.4059763 0.30975583
-0.5583607 7.3737926 -0.61624593
-1.6605237 15.051158 -1.3805593
-0.44854447 7.1859531 -0.83463514
-0.70258152 7.4499583 -0.83957225
-2.0691857 13.805284 -1.1884259
-2.6186557 14.040315 -1.1292326
-1.0408974 7.5568762 -0.82042229
-1.2866623 7.5289793 -0.77308518
-0.0065417802 7.4052138 -0.17236908
-0.2404158 7.3685203 -0.12239039
0.10051318 7.4448977 -0.43469167
-0.14154996 7.4284735 -0.38860869
-0.55867314 7.3941607 -0.090137437
-0.81060773 7.5054131 -0.05096449
-0.45650357 7.4082408 -0.35322037
-0.70404428 7.4642019 -0.30986619
-1.1237811 7.4504251 -0.01206157
-1.3621521 7.409801 0.041918639
-1.0292915 7.5209422 -0.27466321
-2.452632 14.247669 -0.62284458
-0.00099772005 7.368278 0.34952831
-0.24026176 7.3817596 0.39355147
0.096065201 7.3933635 0.087193191
-0.14081602 7.3660946 0.13861021
-0.55245686 7.3235135 0.42730814
-0.7977758 7.4491987 0.47884411
-0.45271561 7.3907871 0.17273189
-0.68834263 7.3693089 0.21649374
-1.1211998 6.6189966 -1.1954594
-1.4405919 6.5857792 -1.1130201
-1.2583543 6.6406422 -1.5749964
-1.6088765 6.6520338 -1.5145998
0.28556475 6.6122155 -1.0333964
-0.043459859 6.6423693 -0.99322045
0.43633994 6.6315937 -1.3887303
0.10048874 6.6660762 -1.3597344
-0.46867731 6.5715804 -0.924106
-0.80485296 6.7406349 -0.89881253
-0.33050185 6.6198025 -1.2892485
-0.66091621 6.6401329 -1.2374135
0.017358471 7.4088955 -0.69763124
-0.19841509 7.4435334 -0.66017479
-1.1274414 8.385457 0.27349484
-2.3406668 13.835926 0.40013862
-0.53532726 7.3774929 -0.61646962
-1.6209772 15.127483 -1.3881058
-0.42618477 7.1912789 -0.8352145
-0.67823827 7.4422717 -0.83817166
-1.1188447 7.5469322 -0.55207968
-2.5640173 13.991693 -1.1238006
-1.0140589 7.5365305 -0.81718385
-1.2646742 7.5427599 -0.77437156
0.016689939 7.3992062 -0.17205922
-0.21673626 7.3532648 -0.12166971
0.12394373 7.446538 -0.43486518
-0.11786168 7.410943 -0.38715571
-0.5351643 7.391892 -0.089975849
-0.78874457 7.5238204 -0.051515531
-0.43464801 7.4355245 -0.35519692
-0.66930884 7.3471994 -0.30153203
-1.1171898 7.570663 -0.01551852
-1.3432102 7.4376426 0.041389018
-1.005399 7.5221596 -0.27453536
-2.4125605 14.28286 -0.62445694
0.02215251 7.3682442 0.34952831
-0.21713381 7.3844767 0.39360255
0.1196081 7.4090195 0.086932302
-0.11821797 7.3944931 0.13834935
-0.53108919 7.3491459 0.42803594
-0.78546858 7.5550036 0.48265588
-0.42796656 7.3642154 0.17286113
-0.66630626 7.3833833 0.21650998
-1.0994563 6.6166792 -1.1942806
-1.4194716 6.5883527 -1.1126522
-1.2374842 6.6445632 -1.5749964
-1.5847623 6.643837 -1.5112841
0.30623928 6.6093197 -1.0330451
-0.022604579 6.6444445 -0.99355876
0.45887297 6.6535077 -1.3941523
0.12143219 6.6657271 -1.3597344
-0.44764853 6.5671105 -0.92314386
-0.7841422 6.7470555 -0.89942062
-0.3094506 6.6149502 -1.2879742
-0.63985503 6.6402283 -1.2370064
0.040650569 7.4107885 -0.69787627
-0.1745484 7.4262505 -0.65807009
-1.1005855 8.3849907 0.27346292
-1.2173613 7.4098315 0.30970037
-0.51149583 7.3692226 -0.6153512
-0.77705353 7.5984349 -0.58965021
-0.40317708 7.1846771 -0.83405578
-0.65233034 7.4167566 -0.83425003
-1.0898316 7.5129728 -0.54827875
-1.340906 7.5171342 -0.50399756
-0.99364644 7.5652328 -0.82069206
-1.2386737 7.5330033 -0.77257061
0.039933681 7.3991175 -0.17205922
-0.19393396 7.3638949 -0.12212014
0.14738207 7.4481034 -0.43503869
-0.094645306 7.4152627 -0.38747865
-0.51390642 7.4234481 -0.09118773
-0.76217949 7.4984312 -0.050551221
-0.40922463 7.3970227 -0.35215607
-0.64495265 7.3353572 -0.3005597
-1.0830821 7.5008903 -0.01335059
-1.3209069 7.4477272 0.041256621
-0.98402661 7.5431004 -0.27568603
-2.3627324 14.26083 -0.62272936
0.045163501 7.3541417 0.34925413
-0.19363756 7.3751292 0.39334708
0.14306456 7.416604 0.086801857
-0.094464883 7.362834 0.1386475
-0.50773847 7.3467884 0.42791465
-0.74639571 7.4103308 0.47723138
-0.40493318 7.3675208 0.17285189
-0.64256734 7.3794641 0.21650186
-1.0771259 6.6104164 -1.1923162
-1.4000143 6.5985432 -1.1137557
-1.215922 6.6446037 -1.5740047
-1.5661441 6.6582313 -1.5136524
0.32700029 6.608325 -1.0330451
-0.00168226 6.6326556 -0.99152875
0.47977197 6.6520329 -1.3941523
0.14243941 6.6692133 -1.3606188
-0.42701641 6.5684843 -0.92314386
-0.760418 6.7278886 -0.89607584
-0.28866893 6.61589 -1.2879742
-0.61937082 6.6461034 -1.2378207
0.063810147 7.4007006 -0.69665092
-0.15155041 7.4406624 -0.65970707
-1.0747353 8.392375 0.27349484
-2.2455716 13.801027 0.3994455
-0.48909006 7.3826942 -0.61669326
-0.74506521 7.5216932 -0.58126533
-0.38021505 7.1780024 -0.83289695
-0.62955076 7.4246879 -0.83509046
-1.9335307 13.784749 -1.184425
-2.4939201 14.107494 -1.1333534
-0.96693385 7.5447192 -0.81745374
-1.2143586 7.5329428 -0.77205604
0.06310486 7.3929634 -0.17174934
-0.17074668 7.3624711 -0.12203008
0.17051569 7.437645 -0.4341712
-0.071298197 7.4115372 -0.38715571
-0.48696527 7.3671856 -0.088844761
-0.74003941 7.514708 -0.051033359
-0.38540411 7.3863201 -0.35124382
-0.62471461 7.3691468 -0.30278212
-1.0657854 7.5498061 -0.01469822
-2.4859922 14.141433 -0.1087115
-0.95934504 7.5382314 -0.27517462
-2.3120947 14.232717 -0.62065631
0.068393752 7.3639607 0.34944999
-0.17046842 7.3757019 0.39334708
0.1657919 7.3941283 0.08716058
-0.071784213 7.3970904 0.13833073
-0.48515478 7.3563275 0.42815724
-0.72110325 7.3927536 0.47649837
-0.38294423 7.3927283 0.17274112
-0.61833698 7.3694921 0.21648562
-1.0563548 6.6137676 -1.1923162
-1.3780506 6.5971408 -1.1126522
-1.1933653 6.6388488 -1.571525
-1.5407586 6.644207 -1.5089159
0.34753561 6.6033335 -1.0323423
0.019153539 6.632628 -0.99152875
0.49974328 6.6388402 -1.3914412
0.16346973 6.6726336 -1.3615035
-0.40649411 6.5717645 -0.92346454
-0.73816246 6.7204232 -0.89455545
-0.26767015 6.6109047 -1.2867001
-0.59812337 6.6441169 -1.2370064
0.087270617 7.4143567 -0.6983664
-0.12829907 7.4470592 -0.66040868
-1.1717391 7.4232564 0.30978355
-0.46483216 7.3663387 -0.61468011
-0.35757288 7.1771841 -0.83260715
-0.60555178 7.4187355 -0.83397001
-1.8939492 13.818362 -1.1872256
-1.2967473 7.5430617 -0.5056833
-0.94298911 7.5457525 -0.81718385
-1.1897402 7.5308466 -0.77128422
0.086480483 7.4027147 -0.17226578
-0.14766455 7.3649673 -0.12212014
0.1942327 7.4490213 -0.43521214
-0.048015259 7.411725 -0.38715571
-0.46512327 7.3906226 -0.089733467
-0.70267451 7.3777561 -0.04621182
-0.36265209 7.3974547 -0.35200402
-0.60020787 7.3551688 -0.30167091
-1.031671 7.4758463 -0.01241311
-2.4171624 14.009318 -0.10557796
-0.93542087 7.5392265 -0.27504677
-1.1795332 7.4863315 -0.2260775
0.091717958 7.3757062 0.34968498
-0.14748544 7.3841958 0.39355147
0.18948406 7.4095626 0.086899683
-0.048304819 7.3732815 0.13855432
-0.461925 7.3558202 0.42809659
-0.69631815 7.3790693 0.47591192
-0.35908765 7.3799095 0.17280574
-0.59568739 7.377377 0.21649374
-1.0373471 6.628685 -1.1946735
-1.3557062 6.5937409 -1.111181
-1.1748103 6.65593 -1.5749964
-1.5185584 6.6433368 -1.5074949
0.36886451 6.6120362 -1.034099
0.040001649 6.6384487 -0.99254382
0.52091599 6.6411214 -1.392345
0.18424512 6.6642871 -1.3597344
-0.38595551 6.5749798 -0.92378521
-0.71769893 6.7286029 -0.89546776
-0.24709716 6.6175723 -1.2879742
-0.57654053 6.6381631 -1.2353776
0.11042248 7.4061079 -0.69738621
-0.1047575 7.4394813 -0.65947318
-1.7851272 14.835674 0.32519731
-1.1446575 7.4031987 0.30945086
-0.44212994 7.3757 -0.61557484
-0.87298244 9.3476858 -0.77411878
-0.33425194 7.1604791 -0.8299998
-0.58110398 7.4067869 -0.83200926
-1.1363891 8.412673 -0.6384995
-0.91694468 7.5289984 -0.81448531
-1.1651397 7.5286713 -0.77051234
0.10981525 7.4064012 -0.17247237
-0.12427554 7.3534102 -0.12157962
0.2173135 7.4384184 -0.43434471
-0.02472478 7.411839 -0.38715571
-0.44077459 7.3720951 -0.088925563
-0.68043876 7.3898768 -0.046556219
-0.33991128 7.4105129 -0.35291627
-0.57725549 7.3590069 -0.30180985
-1.0209259 7.5761752 -0.01528414
-1.2486289 7.4480219 0.041521419
-0.91312188 7.5540237 -0.27581388
-1.1616068 7.5255022 -0.22815061
0.11474179 7.3673844 0.34952831
-0.12407751 7.3746281 0.393296
0.21276659 7.4089308 0.086899683
-0.0251213 7.371397 0.13857296
-0.43802431 7.3432646 0.42767203
-0.67388111 7.3891797 0.47620517
-0.33547616 7.3710103 0.17285189
-0.57282561 7.3831997 0.21649916
-1.0136164 6.6125169 -1.1907446
-1.3349798 6.5979691 -1.111181
-1.1525955 6.651948 -1.5730127
-1.5011492 6.6632271 -1.5112841
0.39001068 6.6167397 -1.0351529
0.060841091 6.6343479 -0.99186707
0.54128402 6.6336279 -1.3909895
0.20523812 6.6656241 -1.3601766
-0.36478418 6.5663028 -0.92218184
-0.6954965 6.7209978 -0.89394736
-0.22630116 6.6183167 -1.2879742
-0.55584913 6.6418934 -1.2357849
0.13402984 7.4215999 -0.69934666
-0.081243239 7.4298439 -0.65830392
-1.1416063 7.5371895 0.3112807
-0.41832346 7.3651447 -0.61423278
-0.66456115 7.4253998 -0.57036489
-0.31222975 7.1733575 -0.831738
-0.55767781 7.4066019 -0.83172911
-1.1056355 8.3826485 -0.6350987
-0.89464843 7.543654 -0.81610441
-1.1417872 7.5342546 -0.77076966
0.13286674 7.3960352 -0.17195593
-0.10134762 7.3637533 -0.12203008
0.24082229 7.4416814 -0.43469167
-0.0014263201 7.4078941 -0.38683289
-0.41920337 7.4033775 -0.090137437
-0.6564849 7.384017 -0.046280701
-0.315927 7.39361 -0.35154787
-0.55429178 7.3627739 -0.30194873
-0.9861986 7.4940796 -0.01276468
-2.289341 13.787604 -0.10028185
-0.88893408 7.5528884 -0.27555817
-1.1370449 7.5231943 -0.22780505
0.13792965 7.3689871 0.34956747
-0.10091026 7.3749819 0.393296
0.23625204 7.4142213 0.086801857
-0.0019797899 7.3754392 0.13853568
-0.41601112 7.3645668 0.42827857
-0.6506654 7.3912611 0.47620517
-0.31231922 7.3720279 0.17285189
-0.54962915 7.3849626 0.21649916
-0.99255538 6.6137285 -1.1903518
-1.3126812 6.5944238 -1.1097097
-1.1301063 6.6459794 -1.5705333
-1.4763552 6.6508527 -1.5070213
0.41053522 6.6115527 -1.0344503
0.081665426 6.6321526 -0.99152875
0.56366938 6.6493607 -1.3950559
0.22617653 6.664947 -1.3601766
-0.34415501 6.5674167 -0.92218184
-0.67335546 6.7133193 -0.89242697
-0.20556226 6.6209488 -1.2883991
-0.53547585 6.6494603 -1.2370064
0.1570982 7.411221 -0.69812131
-0.05799251 7.4380069 -0.65923935
-1.703478 14.949944 0.32602683
-1.1002227 7.4240847 0.30964494
-0.39578143 7.3783326 -0.61557484
-0.63962978 7.4096217 -0.56847829
-0.28853095 7.1426616 -0.82710266
-0.53485608 7.4142404 -0.83256942
-1.0825199 8.4117489 -0.63769931
-2.2764049 13.896096 -1.1103144
-0.86896229 7.5287027 -0.81367564
-1.1169226 7.5299606 -0.76974052
0.15639494 7.4075608 -0.17257567
-0.078158133 7.3600392 -0.12184986
0.26419836 7.4408875 -0.43469167
0.021847039 7.4038749 -0.38650995
-0.39903527 7.4665298 -0.092641987
-0.63328546 7.3860431 -0.046280701
-0.2934179 7.414495 -0.35306832
-0.53040695 7.3545308 -0.30125421
-0.9718197 7.5705371 -0.01493257
-2.2460177 13.794727 -0.10028185
-1.3835423 12.223324 -0.57640517
-1.1149006 7.5365996 -0.22838092
0.16097635 7.3645196 0.34948915
-0.077685811 7.371264 0.39319378
0.25977275 7.4194365 0.086704023
0.02118157 7.3874087 0.13842389
-0.39277461 7.3638406 0.42821792
-0.62726736 7.3912773 0.47613186
-0.2889452 7.3669758 0.17287958
-0.52642739 7.3866529 0.21649916
-0.9728837 6.624579 -1.1919234
-1.2908034 6.5927315 -1.1086062
-1.1070431 6.6361103 -1.5670619
-1.4524984 6.6421809 -1.5037056
0.43171039 6.6161227 -1.0355042
0.10261288 6.6417184 -0.99322045
0.58455491 6.6475568 -1.3950559
0.247242 6.6681027 -1.3610611
-0.32396907 6.5783253 -0.92378521
-0.65305769 6.723268 -0.89364326
-0.18457483 6.6137466 -1.2867001
-0.51426739 6.6472063 -1.2361921
0.1802133 7.4047389 -0.69738621
-0.034610279 7.4361658 -0.65900552
-1.6396002 14.800146 0.32478255
-1.093348 7.5382781 0.31119752
-0.3717621 7.3616719 -0.61356175
-0.6175524 7.4254651 -0.56994563
-0.26622447 7.1474891 -0.82768214
-0.51127601 7.4119349 -0.83200926
-1.2123958 7.6236196 -0.51186448
-0.84487873 7.5274549 -0.81313586
-1.0900555 7.5118508 -0.76691049
0.17955334 7.4030399 -0.17236908
-0.055102911 7.3662419 -0.12212014
0.28757182 7.440021 -0.43469167
0.045141451 7.4177232 -0.38764006
-0.37286827 7.4098573 -0.090299033
-0.60750771 7.3581243 -0.04524751
-0.27064949 7.4313254 -0.35428467
-0.50787807 7.364121 -0.30180985
-0.94585896 7.5556927 -0.01440525
-1.1783826 7.4594574 0.041521419
-1.3417124 12.19586 -0.57435948
-1.0906343 7.5361152 -0.22815061
0.18428156 7.3699737 0.34960663
-0.054551162 7.3734717 0.39324489
0.28274593 7.4105926 0.08683446
0.04440318 7.3933053 0.13836798
-0.36824241 7.335084 0.42730814
-0.60404527 7.3932114 0.47613186
-0.26612648 7.3778415 0.17283343
-0.50236279 7.3763008 0.21648292
-0.95206851 6.6276021 -1.1919234
-1.2697076 6.5948248 -1.1082385
-1.0883288 6.6529484 -1.5705333
-1.4349568 6.6618948 -1.5074949
0.45192385 6.6068792 -1.034099
0.12350558 6.6433344 -0.99355876
0.60469735 6.6379294 -1.3932486
0.26825878 6.6692424 -1.3615035
-0.30296981 6.5714216 -0.92250252
-0.6305865 6.7115149 -0.8915149
-0.16387895 6.6182017 -1.2875496
-0.49368826 6.6526928 -1.2370064
0.19213556 7.4143662 -0.69861144
-0.022904091 7.4322386 -0.65853775
-1.0634834 7.417315 0.30947858
-0.3606492 7.3721743 -0.61468011
-0.60858691 7.4581347 -0.57329959
-0.25487089 7.1439424 -0.82710266
-0.4976722 7.3850732 -0.82808763
-1.731822 14.120341 -1.215232
-1.1760671 7.4741383 -0.49744171
-0.83073133 7.5070977 -0.81016743
-1.0828708 7.544951 -0.77102697
0.1915326 7.4147282 -0.17298882
-0.043381821 7.3503375 -0.12139946
0.29943162 7.443542 -0.43503869
0.056899991 7.4435582 -0.3897388
-0.35978428 7.3784924 -0.089006349
-0.59594947 7.3590693 -0.04524751
-0.25766465 7.389884 -0.35109177
-0.49560472 7.3549585 -0.30111533
-0.93399 7.557169 -0.01440525
-2.1828847 13.817002 -0.10054664
-1.3206561 12.180091 -0.57320881
-1.0782167 7.5338674 -0.22792026
0.19573699 7.3656778 0.34952831
-0.042969622 7.373548 0.39324489
0.29421261 7.4061432 0.086899683
0.055967059 7.381227 0.1384798
-0.35771108 7.3576212 0.4279753
-0.59176564 7.3861842 0.47583866
-0.25484732 7.3882465 0.17278728
-0.49119562 7.3830657 0.21649104
-0.94058436 6.6213193 -1.1903518
-1.2585952 6.5929513 -1.1075028
-1.0760633 6.643167 -1.5675578
-1.4244912 6.6641402 -1.5074949
0.46288133 6.6140146 -1.0355042
0.13390811 6.6411614 -0.99322045
0.6151228 6.636972 -1.3932486
0.27858609 6.6649146 -1.3606188
-0.29272774 6.5738611 -0.92282319
-0.6206122 6.7184 -0.89242697
-0.1533706 6.6125894 -1.2862754
-0.4818933 6.6358886 -1.2333418
0.21542965 7.4137259 -0.69861144
0.00044038001 7.4342604 -0.65877163
-0.81418514 7.5592222 0.26665115
-1.1619295 8.2678337 0.32134479
-0.33740109 7.371285 -0.61445647
-0.58044106 7.4025226 -0.56722051
-0.23185275 7.1249266 -0.82420564
-0.47513625 7.3964787 -0.8294881
-1.6995356 14.228484 -1.2256345
-1.1500977 7.4620609 -0.49594325
-0.80673093 7.5057287 -0.80962765
-1.0588778 7.5463533 -0.77076966
0.21469808 7.4100971 -0.17278226
-0.020325489 7.3564305 -0.12166971
0.32244372 7.4346032 -0.43434471
0.080053851 7.4114485 -0.38715571
-0.33618009 7.3696036 -0.088602379
-0.57314944 7.3648891 -0.04538526
-0.23478261 7.4026175 -0.35200402
-0.47141466 7.3405542 -0.30000407
-0.9114027 7.5699944 -0.01469822
-1.1425974 7.4609776 0.04160969
-1.2774684 12.13653 -0.57014024
-1.0542574 7.5352411 -0.22780505
0.21887811 7.365027 0.34952831
-0.01985226 7.3816442 0.39344928
0.31775832 7.4111753 0.086801857
0.079200931 7.3870144 0.13842389
-0.33484381 7.3647008 0.42815724
-0.56887686 7.3919911 0.47598523
-0.23085421 7.3610215 0.1729165
-0.46692842 7.368609 0.21646938
-0.92056274 6.6300721 -1.1915305
-1.2375047 6.5949435 -1.1071351
-1.0548897 6.6446004 -1.5670619
-1.4031388 6.6666837 -1.5070213
0.48381081 6.6144915 -1.0358555
0.15481141 6.6426787 -0.99355876
0.63597232 6.6350064 -1.3932486
0.29968503 6.6679044 -1.3615035
-0.27207202 6.5747485 -0.92282319
-0.59950066 6.7203169 -0.89242697
-0.13256241 6.611084 -1.2858508
-0.46190166 6.6490879 -1.2357849
0.23857634 7.4090452 -0.69812131
0.02379493 7.4322357 -0.65853775
-0.79063565 7.5637321 0.2666671
-1.012127 7.3901844 0.30900726
-0.31439859 7.3762808 -0.61490387
-0.55921447 7.4300861 -0.56994563
-0.20982592 7.1394682 -0.82623363
-0.44972813 7.3643398 -0.82472628
-1.6679507 14.348422 -1.2372371
-1.1439737 7.5778065 -0.50661987
-0.782552 7.5023103 -0.8088181
-1.034338 7.5437498 -0.76999784
0.23769064 7.401401 -0.17236908
0.0027588599 7.36445 -0.12203008
0.34629476 7.4435024 -0.43521214
0.10339816 7.4171405 -0.38764006
-0.31466043 7.4125562 -0.090299033
-0.55016637 7.3686461 -0.04545413
-0.21182664 7.4152794 -0.35291627
-0.4500252 7.3678823 -0.30180985
-0.88829565 7.5787787 -0.014874
-1.136441 7.5771832 0.039094049
-0.7727474 7.4713569 -0.26954889
-1.0325214 7.5523567 -0.22861126
0.24230441 7.3722954 0.34968498
0.0033487801 7.3776703 0.39334708
0.34054354 7.4001541 0.086964913
0.10242674 7.3887291 0.13840526
-0.31093192 7.3457403 0.42755073
-0.54519063 7.3877635 0.47576535
-0.20777856 7.3637094 0.17290728
-0.44352388 7.3660469 0.21646395
-0.89742613 6.6154327 -1.1879945
-1.2160532 6.5949335 -1.1063993
-1.0343014 6.6497965 -1.5675578
-1.3797802 6.6596503 -1.5041792
0.50568956 6.6266766 -1.0383147
0.17558908 6.6382184 -0.99288213
0.65741104 6.6387901 -1.3946041
0.3207162 6.6688781 -1.3619457
-0.25141677 6.5755706 -0.92282319
-0.57643908 6.7005105 -0.88908231
-0.1118698 6.6173306 -1.2871249
-0.44073755 6.6465983 -1.2349705
0.26216173 7.416193 -0.69910163
0.047174171 7.4420562 -0.65970707
-0.7664777 7.5621982 0.26663521
-1.1181188 8.3344069 0.32217652
-0.29086471 7.367301 -0.61378545
-0.53361785 7.4020562 -0.56680131
-0.1869017 7.1183295 -0.8230468
-0.42755982 7.3815293 -0.82696718
-1.6897441 14.954835 -1.298051
-0.75762868 7.4909258 -0.80692899
-1.0100915 7.5430322 -0.76948327
0.26078895 7.3966274 -0.17216252
0.02589695 7.3664031 -0.12212014
0.36978543 7.4443684 -0.4353857
0.12662016 7.410799 -0.38715571
-0.29086921 7.3995295 -0.089733467
-0.52641398 7.3623652 -0.045178641
-0.188484 7.4139142 -0.35276422
-0.42626208 7.3593025 -0.30111533
-0.86338121 7.5715971 -0.01458102
-1.1081728 7.5510573 0.03975606
-0.75676626 7.5512266 -0.27453536
-1.0058069 7.5338039 -0.22734439
0.26522899 7.3655033 0.34956747
0.02652874 7.3816223 0.39344928
0.36421305 7.4070354 0.08683446
0.12558678 7.3843713 0.13844252
-0.28834945 7.3606658 0.4279753
-0.52138519 7.3814678 0.47547209
-0.18541698 7.4003177 0.17274112
-0.4206205 7.3713975 0.21646938
-0.8766368 6.6182203 -1.1879945
-1.1953269 6.598722 -1.1063993
-1.0116973 6.6415138 -1.5645823
-1.3564765 6.6525388 -1.5013373
0.52585256 6.6172066 -1.0369095
0.19634345 6.6336923 -0.99220538
0.67929423 6.6463785 -1.3968632
0.34166732 6.6678376 -1.3619457
-0.23032591 6.5625157 -0.92057836
-0.55452985 6.6924415 -0.88756204
-0.091136098 6.6235123 -1.2883991
-0.41998366 6.6499043 -1.2353776
0.28537431 7.4133492 -0.69885647
0.070552424 7.4418712 -0.65970707
-0.73611665 7.4948831 0.26607686
-0.98587435 7.5470357 0.31111434
-0.26791513 7.3741374 -0.61445647
-0.51381201 7.4513073 -0.57183224
-0.1649628 7.1406455 -0.82623363
-0.40402365 7.3769059 -0.82612687
-1.6384807 14.920499 -1.2940501
-2.0298486 13.891989 -1.1063809
-0.7355842 7.5090523 -0.80908799
-0.98586345 7.5422368 -0.7689687
0.28385606 7.3917799 -0.17195593
0.049025171 7.3622894 -0.12193999
0.39316931 7.4431691 -0.4353857
0.14986648 7.408371 -0.3869943
-0.26801416 7.4123907 -0.090218231
-0.5027101 7.3560081 -0.044903111
-0.16541761 7.4264331 -0.35367653
-0.40186393 7.338696 -0.29958737
-0.84001857 7.578248 -0.01469822
-1.0870641 7.5723057 0.039358839
-0.73211122 7.5436301 -0.27389604
-0.98345917 7.5468216 -0.22792026
0.2884509 7.3666325 0.34960663
0.049710821 7.3795037 0.39339817
0.38814858 7.4178348 0.086638793
0.14888316 7.3899393 0.13838662
-0.26470584 7.345551 0.42749012
-0.49904388 7.3950305 0.47591192
-0.16202156 7.3928647 0.17277804
-0.39688843 7.3626981 0.21645583
-0.85584211 6.6209416 -1.1879945
-1.1745919 6.6024442 -1.1063993
-0.99082857 6.644659 -1.5645823
-1.332845 6.6434417 -1.4980217
0.54629767 6.611599 -1.0362068
0.21746548 6.6428947 -0.99389708
0.7001698 6.6442118 -1.3968632
0.36330041 6.680367 -1.3650417
-0.2100407 6.5750475 -0.92250252
-0.53432685 6.704 -0.88908231
-0.070263132 6.6139936 -1.2862754
-0.39921653 6.6531453 -1.2357849
0.30893341 7.418365 -0.69959176
0.093915403 7.4396262 -0.65947318
-0.70417666 7.4055448 0.26534304
-0.94450617 7.4152589 0.30922908
-0.24450946 7.3669968 -0.61356175
-0.48654842 7.3973265 -0.56596279
-0.14194579 7.1055126 -0.82101882
-0.38029906 7.3682518 -0.82472628
-1.6079929 15.081923 -1.3098538
-1.9853357 13.892385 -1.1058191
-0.70892453 7.477778 -0.80450034
-0.96241939 7.5472641 -0.76922601
0.30689889 7.3868608 -0.17174934
0.072143808 7.3601003 -0.12184986
0.41738093 7.4558201 -0.43660015
0.1732211 7.41185 -0.38731718
-0.24537227 7.4351687 -0.091106936
-0.47973299 7.3595457 -0.044971991
-0.14155406 7.3930192 -0.35109177
-0.38012326 7.3638277 -0.30125421
-0.81599724 7.5788617 -0.01463963
-1.0513126 7.492559 0.041212481
-0.69995874 7.4524665 -0.26788676
-0.95974314 7.5498743 -0.22792026
0.31186923 7.3716817 0.34972414
0.072908781 7.38131 0.39344928
0.41062832 7.4026046 0.086867072
0.17202166 7.3854361 0.13842389
-0.24121518 7.3323593 0.42706555
-0.47526598 7.388586 0.47561872
-0.13845772 7.3713403 0.17287958
-0.37407902 7.3698997 0.21646395
-0.83337176 6.609972 -1.1852443
-1.1545334 6.609973 -1.1071351
-0.96967477 6.6458216 -1.5640864
-1.313116 6.6533113 -1.4994427
0.5667159 6.6059284 -1.0355042
0.2383986 6.6441493 -0.9942354
0.72082382 6.6400433 -1.3964113
0.38345182 6.6636119 -1.3615035
-0.18928362 6.5717282 -0.92186117
-0.51278561 6.6997347 -0.88817012
-0.049510188 6.6219993 -1.2879742
-0.37831116 6.6543665 -1.2357849
0.33185282 7.4094276 -0.69861144
0.11733447 7.4432669 -0.65994096
-0.68143773 7.4136972 0.2653909
-0.22141829 7.3697152 -0.61378545
-0.46632713 7.4444652 -0.57078409
-0.11954568 7.099988 -0.82014978
-0.3564308 7.355567 -0.82276541
-1.557385 15.055224 -1.306653
-1.9380552 13.872924 -1.103384
-0.68751836 7.5036559 -0.80773866
-0.93644279 7.5325432 -0.76691049
0.33154538 7.4157853 -0.17329869
0.095095217 7.3418565 -0.12103909
0.44080058 7.4544721 -0.43660015
0.19664134 7.4172487 -0.38780153
-0.22148769 7.4159255 -0.090299033
-0.45687291 7.3650055 -0.04510976
-0.11867759 7.4213438 -0.35322037
-0.35657418 7.3570161 -0.30069864
-0.7907781 7.5674634 -0.01422946
-1.0389072 7.5750256 0.03944711
-0.67359477 7.4208269 -0.26571321
-0.93551654 7.5488901 -0.22768988
0.33502504 7.370666 0.34972414
0.09602005 7.3730474 0.39324489
0.43487301 7.4172449 0.086606182
0.19526717 7.3868585 0.13840526
-0.21854672 7.3470697 0.42749012
-0.45153701 7.3820643 0.47532552
-0.11539763 7.3797379 0.17284267
-0.3515383 7.3830233 0.2164802
-0.81491905 6.63203 -1.1891731
-1.1313856 6.6000133 -1.1045603
-0.9485265 6.6469154 -1.5635904
-1.2918313 6.6554966 -1.4989691
0.58946842 6.6256804 -1.0393686
0.25913095 6.6394281 -0.99355876
0.7430225 6.6493587 -1.3991222
0.40526763 6.6779528 -1.3650417
-0.16859543 6.5703163 -0.92154038
-0.49021357 6.6816039 -0.88512945
-0.02871163 6.6318946 -1.2900978
-0.3574053 6.6555219 -1.2357849
0.3556371 7.4182606 -0.69983679
0.14068556 7.440876 -0.65970707
-0.65763551 7.4098229 0.26534304
-1.8186533 14.815225 0.41253161
-0.198266 7.3703747 -0.61378545
-0.44031322 7.4042077 -0.56638205
-0.097300738 7.1062646 -0.82101882
-0.33283919 7.3467612 -0.82136482
-0.77889806 7.6395617 -0.55708081
-1.1279855 8.3404102 -0.57742232
-0.66058701 7.4662871 -0.80234134
-0.9120397 7.5295434 -0.76613861
0.35381502 7.3947606 -0.17226578
0.11838413 7.3595023 -0.12184986
0.46395427 7.4490743 -0.43625313
0.21978456 7.4106154 -0.38731718
-0.19781917 7.4006028 -0.089652672
-0.43224004 7.3424654 -0.0442832
-0.095177211 7.4017386 -0.35169992
-0.33268222 7.3421574 -0.29958737
-0.76739132 7.5738902 -0.01434667
-0.99741274 7.4494939 0.042315841
-0.65094876 7.4308615 -0.26622462
-0.91105962 7.5458479 -0.22734439
0.35796937 7.3655834 0.34964579
0.11938341 7.3887033 0.39365366
0.45791081 7.4118519 0.086671397
0.21873173 7.3962049 0.13831209
-0.19537342 7.3437233 0.42736882
-0.42944968 7.4014001 0.47598523
-0.091891393 7.3440661 0.17300881
-0.32815182 7.3800955 0.21647479
-0.79385567 6.6326098 -1.1887803
-1.1099795 6.5996594 -1.1038246
-0.92790145 6.6517825 -1.5640864
-1.2709173 6.6595225 -1.4989691
0.6085847 6.6061568 -1.0362068
0.28013748 6.6425209 -0.9942354
0.7620675 6.6315145 -1.3955077
0.4258936 6.6708059 -1.3637148
-0.14802791 6.5747614 -0.92218184
-0.47009826 6.6949391 -0.88695395
-0.0079314699 6.6124082 -1.2858508
-0.33596346 6.6468358 -1.2337489
0.37872264 7.4131427 -0.69934666
0.16424388 7.450326 -0.66087639
-0.63419145 7.4098592 0.2653271
-1.7807754 14.892333 0.41352969
-0.17507154 7.3689737 -0.61356175
-0.41859579 7.4313645 -0.56910712
-0.074853912 7.0887246 -0.81841147
-0.30930641 7.3378787 -0.81996423
-0.74337137 7.521131 -0.54487801
-1.1161847 8.450469 -0.58753705
-0.63745236 7.4722757 -0.80288112
-0.88933825 7.540247 -0.76716775
0.37791297 7.4095674 -0.17309208
0.14134592 7.3491054 -0.12139946
0.48707849 7.4436054 -0.43590617
0.24335502 7.4198513 -0.38812441
-0.1741689 7.3812084 -0.088844761
-0.4105913 7.3677306 -0.04510976
-0.071949691 7.4059896 -0.35200402
-0.30988926 7.3491449 -0.30000407
-0.74359494 7.5762634 -0.01434667
-0.99182659 7.5853672 0.039358839
-0.6280852 7.438838 -0.26660824
-0.88735056 7.5486727 -0.22734439
0.38143697 7.3704123 0.34976333
0.1424675 7.3802948 0.39344928
0.48050934 7.4004011 0.08683446
0.2416148 7.3834863 0.13842389
-0.17210382 7.3343072 0.42706555
-0.40538129 7.3887458 0.47547209
-0.068960227 7.3683171 0.17289804
-0.30505595 7.3830881 0.2164775
-0.77060318 6.6136336 -1.1844585
-1.0882593 6.5972986 -1.1027212
-0.90598398 6.6469817 -1.5621028
-1.2529155 6.6787491 -1.5027583
0.63088995 6.6198869 -1.0390174
0.30092135 6.6396379 -0.99389708
0.78454822 6.6426253 -1.3986706
0.44647869 6.6635952 -1.362388
-0.12734279 6.5732198 -0.92186117
-0.44780523 6.6786356 -0.88421726
0.01287522 6.6182632 -1.2871249
-0.31508145 6.6478581 -1.2337489
0.40304545 7.42975 -0.70155221
0.18756844 7.4458017 -0.66040868
-0.61058933 7.4078283 0.26529518
-1.7210644 14.788626 0.41200483
-0.15198267 7.3734612 -0.61400908
-0.3934409 7.4008708 -0.56575316
-0.052563429 7.0849676 -0.81783211
-0.28666764 7.3487072 -0.82136482
-0.88726097 9.3405247 -0.72832012
-0.61334705 7.4663386 -0.80180168
-0.86773556 7.5607314 -0.76948327
0.40130961 7.4103379 -0.17319538
0.16485263 7.3705983 -0.12239039
0.51075304 7.446012 -0.43625313
0.26608798 7.4011183 -0.38667142
-0.1510413 7.3857141 -0.089006349
-0.38710132 7.3629975 -0.044903111
-0.04872594 7.422133 -0.35322037
-0.28603056 7.3321428 -0.29875398
-0.70721054 7.4411955 -0.01030378
-0.95629704 7.4992309 0.041344881
-0.60393292 7.4308252 -0.26596892
-0.86269093 7.5434918 -0.22688368
0.40482882 7.3731685 0.34984165
0.16565828 7.3798103 0.39344928
0.50461859 7.4108219 0.086638793
0.26500914 7.3886871 0.13836798
-0.14912304 7.3388085 0.42718685
-0.38271245 7.3999615 0.47583866
-0.045806039 7.3684974 0.17289804
-0.28168756 7.3800135 0.21647207
-0.75066996 6.6238208 -1.1860301
-1.0684872 6.6065044 -1.1038246
-0.88484418 6.6478739 -1.5616069
-1.2283264 6.6635575 -1.4980217
0.65068585 6.6080785 -1.0372608
0.32169622 6.6366901 -0.99355876
0.80614412 6.645926 -1.400026
0.46844739 6.6777287 -1.3659264
-0.10668679 6.5735879 -0.92186117
-0.42641535 6.6740937 -0.88330507
0.03361921 6.6123276 -1.2858508
-0.29437834 6.6527267 -1.2345632
0.4255386 7.4145794 -0.69983679
0.2109084 7.4431906 -0.66017479
-0.58686227 7.4037271 0.26524732
-1.6896734 14.925082 0.41383469
-0.12884665 7.3758903 -0.61423278
-0.37274146 7.4497375 -0.57078409
-0.03030405 7.0811405 -0.81725264
-0.26373693 7.3535295 -0.8219251
-0.77638757 8.4275227 -0.63589889
-0.58884501 7.4543967 -0.79991257
-0.84148645 7.5417457 -0.76665318
0.42361641 7.3930912 -0.17236908
0.18800582 7.3700447 -0.12239039
0.53429085 7.4463582 -0.43642664
0.28969097 7.4102073 -0.38747865
-0.12827991 7.4181237 -0.090299033
-0.36407501 7.3661733 -0.044971991
-0.02541141 7.402307 -0.35169992
-0.26370317 7.3509474 -0.30000407
-0.68295157 7.4334249 -0.01001084
-0.9446497 7.5954165 0.03927058
-0.58058673 7.4326859 -0.26596892
-0.83967185 7.5521164 -0.22722924
0.42798892 7.371861 0.34984165
0.18884042 7.3792548 0.39344928
0.52849293 7.4171772 0.086508349
0.28814769 7.3858209 0.13838662
-0.12625895 7.3532338 0.42761141
-0.35946432 7.4011278 0.47583866
-0.02265387 7.3786058 0.17285189
-0.25850263 7.3808622 0.21647207
-0.72965097 6.6241961 -1.1856371
-1.0461516 6.6001258 -1.1019855
-0.86468279 6.6563878 -1.5630946
-1.208802 6.6750264 -1.4999163
0.67185479 6.6099181 -1.0379634
0.3425431 6.6356468 -0.99355876
0.82776231 6.649159 -1.4013815
0.48955759 6.6781712 -1.3663685
-0.086054042 6.5758648 -0.92218184
-0.40570223 6.6793456 -0.88391316
0.054414771 6.6141438 -1.2862754
-0.273478 6.6536188 -1.2345632
0.44870174 7.4112248 -0.69959176
0.23412269 7.4365344 -0.65947318
-0.5633117 7.4015446 0.26521543
-0.81479299 7.5231652 0.31050441
-0.1055466 7.3643341 -0.61289072
-0.34733549 7.4111423 -0.56659162
-0.0080642598 7.0792212 -0.81696296
-0.24056354 7.3523421 -0.82164496
-0.65917289 7.3731532 -0.5292744
-1.7457179 14.107125 -1.1228641
-0.56613976 7.4660921 -0.8012619
-0.81779063 7.5443516 -0.76665318
0.44734904 7.3996968 -0.17278226
0.21085604 7.3574333 -0.12184986
0.5573687 7.4406695 -0.43607968
0.31397083 7.4351559 -0.38957739
-0.10463563 7.386518 -0.089006349
-0.34143037 7.3772626 -0.04531638
-0.0021320099 7.410327 -0.35230812
-0.23995882 7.3337946 -0.29875398
-0.66010594 7.4415083 -0.0101866
-0.91880649 7.5824728 0.039623652
-0.55723488 7.434473 -0.26596892
-0.81483757 7.5447941 -0.22665337
0.45101553 7.368485 0.34980249
0.21191986 7.3746276 0.39334708
0.5511691 7.407505 0.086638793
0.31111646 7.3788829 0.13844252
-0.10299112 7.3376017 0.42712617
-0.33552885 7.3882465 0.47532552
0.00056850997 7.3906398 0.17279652
-0.23538586 7.383636 0.21647479
-0.70883828 6.6264548 -1.1856371
-1.0254128 6.6033792 -1.1019855
-0.84282368 6.6513782 -1.561111
-1.1819183 6.6462903 -1.4918642
0.69304156 6.6116891 -1.0386661
0.36368695 6.6404443 -0.99457383
0.84864581 6.6465259 -1.4013815
0.51039273 6.674654 -1.3659264
-0.065396197 6.5761027 -0.92218184
-0.38350463 6.6608572 -0.88087261
0.075341642 6.6237106 -1.2883991
-0.25224739 6.6466203 -1.2329346
0.47251353 7.4176993 -0.70057189
0.25748265 7.4357619 -0.65947318
-0.54047328 7.4092622 0.26526326
-0.79417849 7.5535216 0.31089255
-0.082442231 7.3686042 -0.61333805
-0.32527226 7.4380245 -0.56931674
0.01406215 7.0594234 -0.81406593
-0.2175968 7.3570204 -0.82220525
-0.63699174 7.3870873 -0.53047466
-1.7081676 14.167881 -1.1281087
-0.54227275 7.4619031 -0.80045235
-0.79215807 7.5291376 -0.76433766
0.47045839 7.3962617 -0.17267893
0.23385473 7.3527398 -0.12166971
0.5809021 7.4408674 -0.43625313
0.3359082 7.4002733 -0.38683289
-0.08128117 7.3668265 -0.088198408
-0.31741527 7.3603282 -0.044696469
0.02101991 7.3903556 -0.35078767
-0.21757974 7.3544531 -0.300143
-0.6354183 7.4276061 -0.0097178696
-0.89474136 7.5833364 0.039667789
-0.5334695 7.430213 -0.26558536
-0.79113233 7.5473166 -0.22665337
0.47361881 7.3590517 0.34964579
0.23519878 7.3779221 0.39344928
0.57524443 7.4157028 0.086475737
0.33362699 7.3618841 0.13859159
-0.080013737 7.3478842 0.42742944
-0.31231773 7.3892636 0.47532552
0.02369114 7.3766022 0.17286113
-0.21180287 7.3723454 0.21645854
-0.68801838 6.6286488 -1.1856371
-1.0031483 6.5968561 -1.1001464
-0.82192481 6.6539927 -1.561111
-1.1600091 6.6442318 -1.4904431
0.71380812 6.6094794 -1.0386661
0.38443917 6.6373005 -0.9942354
0.87082261 6.653481 -1.4036405
0.53150523 6.6749625 -1.3663685
-0.044726461 6.5723267 -0.92154038
-0.36292362 6.6679482 -0.88178468
0.096076913 6.6195331 -1.2875496
-0.23113921 6.6415095 -1.2317129
0.49525937 7.4082589 -0.69959176
0.28050342 7.4249916 -0.65830392
-0.51745617 7.4149156 0.26529518
-0.76939404 7.5460362 0.31075394
-0.0593265 7.3767767 -0.61423278
-0.30049983 7.407217 -0.56596279
0.036294241 7.0652809 -0.81493497
-0.19341318 7.3220387 -0.81716317
-0.61472589 7.4009547 -0.53167498
-1.6763754 14.279946 -1.1382234
-0.51908678 7.4675245 -0.80099213
-0.76433635 7.4921403 -0.75919211
0.49383432 7.3967404 -0.17278226
0.25714314 7.3579602 -0.12193999
0.60394108 7.4350357 -0.43590617
0.35987458 7.4151139 -0.38812441
-0.058248442 7.3930244 -0.089248702
-0.29411468 7.357296 -0.044558719
0.044428911 7.4101944 -0.35230812
-0.19483058 7.3670664 -0.3009764
-0.61223572 7.4315591 -0.00977646
-0.86926728 7.5722108 0.039976731
-0.50999236 7.4298611 -0.26545751
-0.76637203 7.5398364 -0.2260775
0.49730465 7.3655057 0.34980249
0.25806341 7.3671546 0.39319378
0.59854072 7.4138589 0.086475737
0.35711452 7.3687916 0.13851705
-0.056952469 7.3540969 0.42761141
-0.28867432 7.3802242 0.47495902
0.04688713 7.3784919 0.17285189
-0.18858063 7.370976 0.21645583
-0.66699994 6.6288266 -1.1852443
-0.98330796 6.6058054 -1.1012499
-0.79967064 6.6449957 -1.5581355
-1.1384568 6.6440163 -1.4894958
0.73502117 6.6111164 -1.0393686
0.40562823 6.6419635 -0.99525046
0.89252186 6.6565022 -1.404996
0.55262792 6.6752043 -1.3668108
-0.024075091 6.5783572 -0.92250252
-0.34142742 6.6591873 -0.8802644
0.11704287 6.6270142 -1.2892485
-0.21048012 6.6480737 -1.2329346
0.50675249 7.4054918 -0.69934666
0.29280591 7.4424071 -0.66040868
-0.50503427 7.4037452 0.26519948
-0.74163669 7.394074 0.30861911
-0.047733869 7.3748732 -0.61400908
-0.28903392 7.4116549 -0.56638205
0.047186069 7.0454268 -0.81203794
-0.18168734 7.314415 -0.81604272
-0.60124457 7.3781028 -0.5292744
-1.693491 14.618749 -1.1700658
-0.50735694 7.4683304 -0.80099213
-0.75236255 7.4913592 -0.75893474
0.50502229 7.3899784 -0.17247237
0.26869997 7.3575473 -0.12193999
0.61664659 7.4459877 -0.43694711
0.37152106 7.4145393 -0.38812441
-0.04660267 7.3811169 -0.088763967
-0.2830607 7.3697309 -0.044971991
0.056222651 7.4240742 -0.35337242
-0.18240912 7.3374472 -0.29889286
-0.59994596 7.4245377 -0.0095420796
-0.85829943 7.5815115 0.039800178
-0.49870142 7.4366283 -0.26584107
-0.75493944 7.5450029 -0.22630781
0.50887305 7.3647151 0.34980249
0.26996508 7.3767319 0.39344928
0.60915893 7.4009562 0.086671397
0.36933857 7.3822055 0.13838662
-0.04538022 7.3461809 0.42736882
-0.27740988 7.3886566 0.47525221
0.058430672 7.3744087 0.17287035
-0.17711292 7.3752613 0.21646126
-0.65528762 6.6162 -1.1824942
-0.97293097 6.6073413 -1.1012499
-0.78989536 6.6520181 -1.5596232
-1.1283525 6.6477113 -1.4899695
0.74631739 6.6177754 -1.040774
0.41629136 6.6452537 -0.99592721
0.90162915 6.6454444 -1.4027369
0.56264257 6.6684947 -1.365484
-0.01374612 6.5764132 -0.92218184
-0.33149651 6.6695848 -0.88178468
0.12731606 6.6209602 -1.2879742
-0.19990464 6.6444817 -1.2321202
0.53075695 7.4137607 -0.70057189
0.31618407 7.4414501 -0.66040868
-0.48189646 7.4072905 0.26521543
-0.71640235 7.3764691 0.30834186
-0.024566211 7.3749871 -0.61400908
-0.26645359 7.4304137 -0.56826866
0.069532514 7.0610738 -0.81435561
-0.15900891 7.3268275 -0.81772333
-0.57895464 7.3918629 -0.53047466
-1.6957862 15.045374 -1.2099624
-0.48389342 7.4698877 -0.80099213
-0.73001838 7.5055265 -0.76047844
0.5292806 7.402298 -0.17319538
0.29217234 7.3666496 -0.12239039
0.63985682 7.44203 -0.43677366
0.39481127 7.4133358 -0.38812441
-0.0234196 7.3692369 -0.088279232
-0.25959817 7.3625946 -0.044696469
0.079119124 7.3939509 -0.35109177
-0.15981184 7.3559356 -0.300143
-0.5773586 7.4363551 -0.0098350504
-0.83199859 7.5623159 0.040285662
-0.4758189 7.4461269 -0.26635247
-0.71947151 7.4301219 -0.21951267
0.53261054 7.3710561 0.34995914
0.29328173 7.3798432 0.39355147
0.63205075 7.3950224 0.086736627
0.3928248 7.3870015 0.13833073
-0.02230069 7.3502851 0.42749012
-0.25404632 7.3854971 0.47510558
0.081333742 7.3561916 0.17295343
-0.15423611 7.3877778 0.2164775
-0.63575691 6.631896 -1.1852443
-0.95044285 6.5986977 -1.099043
-0.7692098 6.6563921 -1.5601192
-1.1081167 6.6550536 -1.4909167
0.76639962 6.6095343 -1.0397201
0.43667778 6.636044 -0.99457383
0.92222512 6.6406503 -1.4022851
0.5834257 6.6647511 -1.3650417
0.0068735802 6.5685282 -0.92089903
-0.31004494 6.6607223 -0.8802644
0.14806312 6.6185751 -1.2875496
-0.17945342 6.6587777 -1.2349705
0.55451208 7.4179931 -0.70130718
0.33931172 7.4344668 -0.65970707
-0.45850477 7.4067726 0.26519948
-0.69225276 7.3687325 0.30820325
-0.00138154 7.3790026 -0.61445647
-0.24260296 7.4172997 -0.56680131
0.091519251 7.0489488 -0.8126173
-0.1355942 7.309473 -0.81520241
-0.55558532 7.3916602 -0.53027463
-1.6498286 15.062502 -1.2110863
-0.45927137 7.4515882 -0.79829347
-0.70604813 7.5038347 -0.75996393
0.55269074 7.4025898 -0.17329869
0.31531599 7.365696 -0.12239039
0.66341943 7.4419675 -0.43694711
0.4177852 7.4060864 -0.38764006
-7.7850003e-05 7.4232292 -0.090460613
-0.23596607 7.3493905 -0.044214319
0.10276496 7.4175925 -0.35291627
-0.13617022 7.3324656 -0.29847616
-0.55285943 7.4221797 -0.0093663
-0.80845392 7.5668802 0.040241539
-0.45105278 7.4236736 -0.26481819
-0.69457853 7.4164472 -0.2185913
0.55450773 7.3533993 0.34964579
0.31638822 7.3768878 0.39350039
0.65675008 7.4089298 0.086475737
0.41476637 7.3617649 0.13855432
0.00080767 7.3543177 0.42761141
-0.23125753 7.3982434 0.47554541
0.10458742 7.3638978 0.1729165
-0.13081139 7.3782287 0.21646395
-0.61405027 6.624094 -1.1832799
-0.92970586 6.6016517 -1.099043
-0.74724793 6.6491456 -1.5576396
-1.0849584 6.6450868 -1.4876012
0.78812444 6.6149106 -1.0411253
0.45778105 6.6385732 -0.99525046
0.94336635 6.639648 -1.4027369
0.60571188 6.678431 -1.3685801
0.02759145 6.5783439 -0.92250252
-0.28939652 6.6675878 -0.88117659
0.16879962 6.6161232 -1.2871249
-0.15853149 6.6593084 -1.2349705
0.57700664 7.406322 -0.70008183
0.36311394 7.4432845 -0.66087639
-0.43512458 7.4061794 0.26518351
-0.66947675 7.3748522 0.30825871
0.02169585 7.3630714 -0.61266696
-0.21930107 7.418025 -0.56680131
0.11330952 7.0308194 -0.81000996
-0.11225606 7.2900629 -0.81240124
-0.53209043 7.3893981 -0.52987456
-0.79343343 7.5824461 -0.50287372
-0.43651351 7.4648657 -0.79991257
-0.67594784 7.4369049 -0.7509591
0.5761044 7.4028077 -0.17340194
0.33802962 7.3546886 -0.12193999
0.6873644 7.4457955 -0.43746763
0.44160634 7.4146891 -0.38844728
0.02317518 7.4132018 -0.090056643
-0.21326715 7.3620825 -0.044627588
0.12590256 7.4092584 -0.35230812
-0.11351386 7.3528051 -0.29986519
-0.52994645 7.429863 -0.0095420796
-0.78382742 7.5614305 0.04041807
-0.42837676 7.4370117 -0.26558536
-0.67146391 7.4205799 -0.21870646
0.57825959 7.3595924 0.34980249
0.33973023 7.3798528 0.39360255
0.68078041 7.4147935 0.086345293
0.43856099 7.3724065 0.13844252
0.02397833 7.364274 0.42791465
-0.20757326 7.3849502 0.47503227
0.12859645 7.4055233 0.17272267
-0.1078501 7.3906007 0.2164802
-0.59223491 6.6142673 -1.1809226
-0.90896291 6.6045399 -1.099043
-0.72655946 6.6533861 -1.5581355
-1.0653361 6.6561317 -1.4894958
0.80865389 6.6104484 -1.040774
0.47890142 6.6410356 -0.99592721
0.96652013 6.6520672 -1.4063516
0.62633896 6.6726103 -1.3676955
0.04827879 6.5801983 -0.92282319
-0.26810074 6.6605639 -0.8799603
0.18970993 6.6194668 -1.2879742
-0.13737072 6.6499867 -1.2329346
0.60127747 7.4163394 -0.70155221
0.38669026 7.4460754 -0.66134411
-0.41206115 7.4115033 0.26521543
-0.64575791 7.3709435 0.3081755
0.044982549 7.3788657 -0.61445647
-0.19545802 7.4007845 -0.56491464
0.13508096 7.0165796 -0.80798197
-0.08944504 7.2963204 -0.81324166
-0.50900096 7.3930192 -0.5300746
-0.77355385 7.6225276 -0.50643259
-0.41244215 7.4543262 -0.79829347
-0.65600252 7.4765201 -0.75584745
0.59885573 7.39499 -0.17309208
0.36086258 7.3476019 -0.12166971
0.71075475 7.4435992 -0.43746763
0.46478242 7.4112759 -0.38828588
0.04619294 7.3851166 -0.088925563
-0.19019398 7.3647141 -0.044696469
0.14870948 7.3888888 -0.35078767
-0.090095878 7.3331757 -0.29847616
-0.50660008 7.4314914 -0.0095420796
-0.75655222 7.5300455 0.041168351
-0.40500849 7.4383211 -0.26558536
-0.64959121 7.4385619 -0.21962789
0.60171944 7.3617239 0.34988081
0.36282387 7.3767509 0.39355147
0.70328921 7.4046569 0.086475737
0.46254799 7.3849673 0.13831209
0.04693722 7.3461714 0.42736882
-0.18442655 7.3875637 0.47510558
0.15224726 7.4210777 0.17264882
-0.084359802 7.3729048 0.21645583
-0.57306176 6.6356392 -1.1848514
-0.8879382 6.6054149 -1.0986753
-0.70466781 6.645999 -1.555656
-1.0453435 6.6652017 -1.4909167
0.83068329 6.6176381 -1.0425305
0.49962404 6.6375322 -0.99558878
0.98682791 6.6451449 -1.4054478
