# .PCD v0.7 - Point Cloud Data file format
VERSION 0.7
FIELDS x y z
SIZE 4 4 4
TYPE F F F
COUNT 1 1 1
WIDTH 1540
HEIGHT 1
VIEWPOINT 0 0 0 1 0 0 0
POINTS 1540
DATA ascii
5.5103855 10.710312 0.3725802
6.0989223 9.4894457 -1.0535429
3.6700523 6.1556463 -0.5399695
6.4057651 9.6792221 -1.4798144
3.8046801 6.1823153 -0.80791944
5.1307726 9.4756289 -0.86835229
4.9125533 9.8720484 -0.8229835
5.3332338 9.5402241 -1.2700149
4.8989992 9.5175915 -1.1708395
7.5197244 9.6796913 -0.85368615
6.9818449 9.6724691 -0.75298202
3.6198871 6.0629311 -0.034157962
6.3953848 9.6492462 -0.66992772
3.7467523 6.0875549 -0.28555822
5.6346798 10.384653 -0.13750798
5.4107137 10.852841 -0.059457671
5.5534916 9.9115086 -0.51618469
5.2527313 10.199027 -0.45066261
15.580029 20.580538 0.71080679
14.296889 20.430332 0.84207129
16.037201 20.616367 -0.21818183
14.820931 20.586542 -0.02908808
13.128791 20.358353 0.939448
3.6122837 6.0380616 0.46213084
21.556253 32.386261 0.027347799
5.9451971 9.6699619 0.22184007
2.8171265 5.4453006 -1.0787724
2.5801213 5.6169839 -1.0081921
3.932117 5.2863283 -1.7076762
3.1696298 5.2316432 -1.8229796
2.7126234 5.2346768 -1.6871297
4.8288922 5.8596187 -1.2072983
4.3757038 5.6331897 -1.4654405
3.6991034 6.3649263 -0.98699176
4.048769 5.9687729 -1.4162375
3.7655287 6.1961069 -1.3575346
7.240963 9.5393038 -1.2615242
6.7775731 9.5403929 -1.161342
5.7672038 10.24278 0.29976881
5.5330038 10.671621 0.37224752
6.3389292 9.7934523 -1.0969369
3.7005672 6.1628847 -0.54227531
6.4372416 9.6606951 -1.4801041
3.8510489 6.2141943 -0.81520241
5.1653013 9.4681883 -0.86935246
4.8769035 9.7229176 -0.80893552
5.3778253 9.5492887 -1.2740629
4.9434185 9.5303621 -1.1749561
7.5808601 9.6951971 -0.85802358
7.0612636 9.7183304 -0.75976264
3.6430101 6.0583963 -0.03443348
6.4067845 9.6009502 -0.6673429
3.7857113 6.1080475 -0.28819734
5.6489806 10.333613 -0.13639474
5.4304767 10.807174 -0.058751538
5.5757346 9.8783894 -0.5150339
5.3030605 10.217961 -0.45296609
22.977982 30.135509 0.94749427
14.756513 20.947994 0.85964823
16.135214 20.608366 -0.21906237
14.915998 20.582018 -0.02957255
13.195952 20.322035 0.93962997
3.6148314 5.9992323 0.460958
13.821893 20.642221 0.09224911
5.9650564 9.6342096 0.22181301
2.8753455 5.5145001 -1.0964522
2.5731936 5.5552325 -0.99715763
3.9578824 5.2863102 -1.7120351
3.1840806 5.2184033 -1.8217449
2.3803527 5.4467635 -1.2952958
2.737072 5.2413201 -1.6925139
4.7614527 5.7416601 -1.1834087
3.7091539 6.3361793 -0.98395109
4.1184669 6.0300832 -1.4357743
3.8052979 6.2177224 -1.3656785
7.2878127 9.5385551 -1.2649552
6.8155727 9.5303812 -1.162979
5.7785516 10.188128 0.2994338
5.5462112 10.615149 0.37163755
6.3304639 9.7136364 -1.0888844
6.4686637 9.642067 -1.4803938
3.8872299 6.2290049 -0.81968421
5.197907 9.45714 -0.86995268
4.868083 9.6292648 -0.80069387
5.4107428 9.5375128 -1.2748724
4.96876 9.5059853 -1.1736696
7.6840467 10.056558 -0.44391173
7.6051011 9.663518 -0.85715598
7.0706372 9.6670923 -0.75685668
3.6630528 6.0486355 -0.034502361
6.4279876 9.5675545 -0.66612661
5.8886147 9.4617043 -0.56378049
5.6678591 10.291331 -0.13557443
5.4536061 10.768634 -0.058221921
5.6354642 9.9110775 -0.51874179
5.3286834 10.188851 -0.45215988
22.993332 29.960123 0.94494849
14.856894 20.950499 0.86118114
16.245728 20.615646 -0.22026898
15.021777 20.591648 -0.0302247
13.321089 20.374113 0.94302642
3.630568 5.9827099 0.46073806
13.942654 20.681557 0.091787577
5.9868569 9.6018286 0.22179134
2.8641539 5.4517436 -1.0842729
2.5395257 5.4364681 -0.9743529
3.9825344 5.2846398 -1.715849
3.201447 5.210001 -1.8223624
2.4773712 5.6227493 -1.3440826
2.7597966 5.2444906 -1.6967015
3.7090805 6.2903695 -0.97786975
4.0928679 5.9528561 -1.4187858
3.8329828 6.2191029 -1.3689359
7.3257937 9.5569782 -1.2696114
6.8582392 9.5584593 -1.1685917
5.7766671 10.147793 0.29914665
5.552702 10.58692 0.37133259
6.3358898 9.6887321 -1.0868714
3.7234113 6.1351547 -0.54101759
6.4682784 9.6089468 -1.4763379
3.90955 6.2430763 -0.82304555
5.2282019 9.4768066 -0.87315345
4.9011397 9.6571636 -0.80444002
5.4375324 9.5496387 -1.2781109
5.0112019 9.5509243 -1.1813879
7.7047076 10.050809 -0.44432497
7.6326504 9.6671724 -0.85889107
7.1410799 9.7316303 -0.76444441
3.7096941 6.1045032 -0.036982
6.4329405 9.5425873 -0.66475821
5.9424281 9.5151482 -0.5689199
5.6704216 10.25795 -0.13475415
5.4497595 10.719013 -0.057206821
5.6470513 9.8952885 -0.51823038
5.3400593 10.171619 -0.45158398
22.965879 29.827372 0.94255924
14.726581 20.697269 0.85397661
16.3141 20.635563 -0.22121473
15.085948 20.611635 -0.030727791
13.315727 20.296373 0.94096422
3.6564922 6.0043745 0.46191096
13.993078 20.686117 0.091639876
5.9892478 9.5720367 0.22175886
2.9630785 5.6168489 -1.1227756
2.5505428 5.4378233 -0.9754563
3.9989114 5.289155 -1.7196629
3.2096264 5.2049656 -1.8223624
2.8624184 5.6921134 -1.4758147
2.582761 5.8396006 -1.4028163
2.7698283 5.2435169 -1.697898
4.7072253 5.6228266 -1.1609244
3.7249601 6.2947655 -0.97969413
4.0185452 5.8260674 -1.3869324
3.8468432 6.2197514 -1.3705648
7.3655167 9.5464621 -1.2715719
6.8998351 9.5529881 -1.1709303
5.7925467 10.101868 0.29889143
5.5719833 10.542869 0.37091672
6.388237 9.7019253 -1.0913451
3.7457647 6.1285272 -0.54164648
6.4917574 9.5787611 -1.4745996
5.9899831 9.5244961 -1.3726287
5.2618384 9.4672794 -0.87395358
4.9612422 9.7002888 -0.81062126
5.4734535 9.5428057 -1.2797301
5.0384212 9.5298643 -1.1806161
7.7872777 9.7988682 -0.87624055
7.1586328 9.6914768 -0.76266855
3.757899 6.1406589 -0.038910631
6.4707599 9.5338583 -0.66582251
5.954308 9.4676743 -0.56655854
5.68505 10.208682 -0.13369948
5.4725199 10.680457 -0.056677211
3.5779371 6.2432985 -0.24934755
5.2892551 9.9975224 -0.44133371
22.977354 29.649218 0.93993509
14.869438 20.759876 0.85740006
16.424988 20.642046 -0.22242136
15.180259 20.604412 -0.031193631
13.419169 20.314436 0.94314772
3.6815734 6.0031004 0.46235079
14.044481 20.622223 0.091750652
6.0022998 9.5260572 0.22171555
2.9092939 5.4744682 -1.0925233
2.5684505 5.4315624 -0.97582406
4.0259466 5.2903872 -1.7245667
3.2140062 5.1754103 -1.8149536
2.4756088 5.5470104 -1.3270309
2.7917159 5.2448711 -1.7014875
4.7095838 5.5899925 -1.1567086
3.7467337 6.2864318 -0.98030221
4.0076962 5.7717795 -1.3758898
3.8818076 6.2326179 -1.3766726
7.4113402 9.543623 -1.2747577
6.9356337 9.5393105 -1.1720996
5.817224 10.071514 0.29877976
5.5900979 10.497038 0.37047312
6.3702006 9.6090317 -1.0815029
3.8043842 6.1812377 -0.54961216
6.5229349 9.5599508 -1.4748893
6.0536542 9.559247 -1.3815923
5.3091283 9.4819126 -0.87755442
4.9780698 9.6580725 -0.80781162
5.5173411 9.5495539 -1.2835082
5.0776167 9.5315161 -1.1831892
7.9340644 9.9188213 -0.89237589
7.2032757 9.6881676 -0.76460582
5.9341984 9.6572723 -0.18142174
6.6124301 9.6762381 -0.68087494
5.9893384 9.4573622 -0.56725305
5.7033443 10.166394 -0.1328792
5.4886875 10.629419 -0.055838659
3.5844789 6.2096033 -0.24768542
5.44876 10.222541 -0.45711225
15.94081 20.449629 0.71307844
14.905387 20.672487 0.85612273
16.524796 20.634018 -0.22333448
15.274652 20.596811 -0.031659439
13.545018 20.365328 0.94654417
3.7160726 6.0170698 0.46345031
14.003856 20.424706 0.092609107
13.062307 20.643856 0.23954117
2.9768567 5.5584464 -1.1137393
2.5980752 5.45014 -0.98134142
4.0483665 5.2853742 -1.7272909
3.2322519 5.1685224 -1.8161885
2.5925481 5.7628951 -1.3867118
2.8136342 5.2461424 -1.7050767
4.9355407 5.8192148 -1.2139733
4.5981517 6.0146451 -1.1525809
3.7634301 6.2695351 -0.97939003
3.9852848 5.7016449 -1.3606001
3.9065409 6.2287054 -1.3787086
7.4707003 9.5577631 -1.2806392
6.9912958 9.5527954 -1.1772445
3.5621369 6.1428685 0.26264703
5.6051531 10.445905 0.36994636
6.3826413 9.5625629 -1.077924
3.8519108 6.215003 -0.55527198
6.5787907 9.5768719 -1.4815527
6.0932021 9.555232 -1.3841133
5.33987 9.4669199 -0.87775445
5.0440159 9.7113876 -0.81511664
3.6818185 6.3439336 -0.78048241
5.1103358 9.5207682 -1.1839609
8.0177956 9.9589252 -0.89966267
7.2348642 9.6670914 -0.76476729
5.9183984 9.5636902 -0.17839104
6.6552677 9.673461 -0.68254733
6.0500145 9.4873571 -0.57128119
5.7243905 10.129306 -0.13223466
5.5183754 10.605022 -0.05566214
3.6029587 6.1965904 -0.24755754
5.5410542 10.318089 -0.46448326
16.003736 20.397881 0.71303928
14.89989 20.528406 0.85305691
16.636024 20.639566 -0.22454111
15.384679 20.609673 -0.032367509
13.676886 20.423931 0.95024395
5.9563189 9.6065092 0.61863422
14.267076 20.668446 0.09099374
13.157134 20.649981 0.23961698
2.9999332 5.5593991 -1.1160965
2.6202464 5.4526048 -0.98354834
4.0743017 5.2848592 -1.7316498
2.5549564 5.6306252 -1.3535558
2.835588 5.2473273 -1.7086663
4.6894274 5.4960856 -1.141602
3.7719231 6.2390342 -0.97604525
4.0235286 5.7177916 -1.368245
3.9583209 6.2678404 -1.3913316
7.511765 9.5482664 -1.2828449
7.0318418 9.5452032 -1.1793494
3.5661917 6.1058002 0.26240775
5.626574 10.407112 0.36961365
6.4293332 9.567173 -1.0812793
5.9090734 9.4936476 -0.96319914
6.6111002 9.5594072 -1.4821321
6.1530404 9.5827703 -1.3919564
5.3843908 9.4760151 -0.88075519
5.0551958 9.6584015 -0.81118309
3.6805997 6.296483 -0.77481532
5.1514902 9.525631 -1.1870482
8.0741911 9.9645996 -0.90313274
7.280745 9.6650486 -0.76686603
5.94104 9.5331602 -0.17790888
6.7141004 9.693429 -0.68634844
6.2634673 9.7558155 -0.59503359
5.7393026 10.081777 -0.13123858
5.5229969 10.532677 -0.054293979
3.6112428 6.1663375 -0.2461511
5.5639782 10.28305 -0.46333158
16.133497 20.430613 0.71511513
22.920622 31.394701 1.1982098
16.74114 20.63686 -0.2255847
15.475739 20.596443 -0.03277744
13.73538 20.372583 0.94994068
5.9822483 9.5809593 0.61834103
23.114883 33.234241 0.02006476
13.268301 20.680979 0.23973337
2.9654756 5.4554029 -1.0944878
2.652652 5.4762592 -0.99016899
4.1026216 5.2872839 -1.7370982
2.6647499 5.8261571 -1.4080266
2.8548176 5.2434106 -1.7104609
4.7105341 5.4857945 -1.142656
4.645462 5.998138 -1.1552875
3.7986574 6.2389984 -0.97817373
3.9858229 5.6271863 -1.347434
3.9205179 6.1642957 -1.3689359
7.5577888 9.5448141 -1.2860308
7.0747733 9.5406408 -1.1819218
3.5649495 6.0601645 0.26208872
5.6430469 10.35949 0.36914232
6.4191327 9.4877567 -1.0732267
5.958868 9.5071039 -0.96718192
6.6513104 9.5531826 -1.4847393
6.3716822 9.8565073 -1.4412565
5.427042 9.4814739 -0.88335574
5.0882902 9.6477604 -0.81174505
3.6892374 6.2661428 -0.77184683
5.1936755 9.5320683 -1.190393
8.0057325 9.8174 -0.88942641
7.4924312 9.8823748 -0.79124361
5.9540253 9.4873199 -0.17680685
6.725071 9.6445208 -0.68376374
6.2778969 9.7109194 -0.59295011
5.7559738 10.037715 -0.13035971
5.5504808 10.504652 -0.054029182
3.623457 6.1429529 -0.24525611
5.6200533 10.309397 -0.46621078
16.147778 20.317253 0.71354848
15.04987 20.463394 0.85397661
16.843882 20.630592 -0.22656302
15.587361 20.609972 -0.033504128
13.833055 20.378914 0.95176017
5.9890018 9.5248375 0.61672831
23.115856 33.014069 0.02089553
13.281206 20.558498 0.23960343
3.0148728 5.5044036 -1.1078459
2.7031901 5.5369358 -1.0045139
4.1286416 5.2865372 -1.741457
2.8759031 5.2427611 -1.7134521
4.70577 5.4457211 -1.1366835
4.7571878 6.103538 -1.1813401
3.832623 6.2506762 -0.9824307
4.1369386 5.8003135 -1.3971255
3.8653057 6.0346065 -1.3400257
7.6088223 9.5473671 -1.2901968
7.1331401 9.556633 -1.1875346
3.5890985 6.0575199 0.26216847
5.663105 10.318894 0.36878189
6.4556422 9.4773846 -1.0745687
6.0140886 9.5287628 -0.97221279
6.6869864 9.5403309 -1.4861879
6.3800054 9.8015394 -1.4353741
5.458797 9.4678211 -0.8837558
5.1074104 9.6106024 -0.80949736
3.6987355 6.2375135 -0.76914817
5.2273941 9.5226679 -1.191422
8.0352678 9.7906656 -0.88925296
7.3787165 9.6683149 -0.77187073
5.9912477 9.4804144 -0.17728899
6.7668285 9.6396437 -0.68528414
6.2942705 9.6693792 -0.59114432
3.5449798 6.1573172 0.00053582003
5.5694165 10.460659 -0.053367149
3.6591475 6.1589346 -0.24730183
5.6533689 10.293444 -0.46632606
16.385363 20.483303 0.71899271
15.139029 20.449783 0.85504961
16.950556 20.628525 -0.22763921
15.684691 20.603905 -0.03400724
13.903783 20.345253 0.95212406
12.885705 20.406771 1.0892439
23.2206 32.942921 0.0208863
13.292373 20.434467 0.23947079
3.0436039 5.5154619 -1.1125605
2.7446661 5.5779071 -1.0148127
4.1546955 5.2856817 -1.7458159
2.983758 5.6645179 -1.4837492
2.8960803 5.2403665 -1.7158452
4.8058858 5.5256972 -1.1591679
4.7581663 6.065239 -1.1762649
3.8677292 6.2638903 -0.98699176
4.2089839 5.8617091 -1.417087
3.9982202 6.2005672 -1.3840021
7.6649318 9.5558748 -1.295343
7.1666999 9.5389462 -1.1882362
3.6050191 6.0410719 0.2621206
5.6810412 10.274767 0.36836603
6.5113249 9.4946957 -1.0797136
6.0482497 9.5165462 -0.97305143
6.7363849 9.5467186 -1.4911131
6.3902135 9.7499304 -1.4300519
3.6100204 6.233707 -0.50926983
5.1207366 9.562871 -0.80612576
3.719336 6.2275591 -0.769418
5.2802248 9.5479088 -1.1975965
8.0392761 9.7331657 -0.88560957
7.4369102 9.6815052 -0.77558392
6.0520101 9.510519 -0.17928648
6.8167081 9.6459789 -0.68786895
6.3159008 9.6361866 -0.59003311
3.5552249 6.1306181 0.00106314
5.5909572 10.42194 -0.052837539
3.6702311 6.1337357 -0.24627896
5.6789427 10.263388 -0.46551985
16.518692 20.517317 0.72114688
15.297454 20.52887 0.85908628
17.057388 20.625977 -0.2287154
15.784577 20.600595 -0.034547579
14.064097 20.441355 0.95727944
12.954039 20.372936 1.089537
14.671634 20.692951 0.089830667
13.331347 20.354095 0.23940854
3.1261926 5.6221533 -1.1392766
2.6876917 5.4174824 -0.98318046
4.184351 5.2892532 -1.7518091
2.6107922 5.5663462 -1.34503
2.917208 5.2395577 -1.7188364
4.8479609 5.5386324 -1.1658429
4.7528729 6.0192366 -1.1694981
3.9050345 6.2803073 -0.9921608
4.2354341 5.8595147 -1.4200599
4.0346494 6.2143116 -1.390517
7.7024126 9.5409994 -1.2968135
7.2169385 9.5433636 -1.1922117
3.6167221 6.017745 0.26200894
5.7210441 10.270863 0.36858782
6.5660424 9.5101194 -1.0846345
6.1026845 9.536087 -0.97787273
6.7789874 9.5432291 -1.4942999
6.4240708 9.7347736 -1.4308922
3.6154611 6.1983218 -0.50646919
5.1535759 9.552001 -0.80668771
3.740936 6.219234 -0.76995778
5.3044257 9.5208645 -1.196053
8.0302305 9.6604462 -0.8802312
7.5110617 9.714963 -0.78139579
6.9014773 9.7007704 -0.69501495
6.3253312 9.5846119 -0.587394
3.5734515 6.1176968 0.00112173
5.6047316 10.369102 -0.051954851
3.6956999 6.1324105 -0.2470461
5.6975989 10.221048 -0.46390736
22.940733 30.606398 1.1823189
17.173326 20.633722 -0.23001985
15.890685 20.604794 -0.035181109
14.071242 20.314968 0.95424694
13.024429 20.342247 1.0899769
22.944262 32.121307 0.02471705
21.379305 32.44714 0.2590695
3.085921 5.5098848 -1.1157036
2.7142849 5.4283957 -0.98722655
4.2069101 5.2836332 -1.7545335
2.9318278 5.4836998 -1.4366379
2.794554 5.9136586 -1.440709
2.9421203 5.2453122 -1.7242203
4.8196039 5.4718256 -1.1535468
4.7485566 5.9748764 -1.1630695
3.9487371 6.3066282 -0.99915445
4.2457314 5.8351479 -1.417087
7.7436428 9.5305977 -1.2990191
7.2636766 9.5428085 -1.1954858
3.6220639 5.9841619 0.26180154
5.7289124 10.209186 0.36789471
6.5845046 9.4731512 -1.0823977
6.3333626 9.8299789 -1.0170723
6.8020048 9.5122423 -1.4925616
6.4273148 9.6732492 -1.4238894
3.6328859 6.1835093 -0.50606906
5.1759834 9.5217514 -0.80518925
3.7542574 6.1973038 -0.76833856
5.3565412 9.5439882 -1.2019706
8.0643826 9.6397486 -0.88075155
7.5268927 9.67241 -0.77945846
6.9365754 9.6855164 -0.69562304
6.3444052 9.5480518 -0.58600491
3.5834711 6.0909672 0.00164908
5.6268015 10.332106 -0.051469371
3.7232807 6.1343904 -0.24806897
5.7111783 10.169982 -0.46171916
16.82568 20.631454 0.72666949
15.369586 20.3573 0.85668468
17.276628 20.625624 -0.2309982
15.994528 20.605368 -0.03577739
14.155603 20.300158 0.9553386
13.105568 20.328131 1.0911498
23.062582 32.073418 0.024578599
13.70417 20.640087 0.24000949
3.2255166 5.7148628 -1.1652071
2.770798 5.499012 -1.0037782
4.2306728 5.279429 -1.7578025
2.6490276 5.5568638 -1.3469245
2.9614217 5.2410164 -1.7260151
4.840703 5.4610653 -1.1546007
4.7256174 5.9074512 -1.1515658
4.2976952 5.867384 -1.4294037
7.8075614 9.547636 -1.3056358
7.3128972 9.5452089 -1.1992277
3.663888 6.0102367 0.26215252
5.7452755 10.163247 0.36745113
6.6245246 9.4670496 -1.0844109
6.3523488 9.7916508 -1.0147665
6.830698 9.4892206 -1.4922718
6.4488974 9.639822 -1.4216485
3.6268055 6.1293421 -0.50106794
5.2125392 9.517683 -0.80650043
3.7757871 6.1888537 -0.76887828
5.3903885 9.5340261 -1.2029996
7.6604824 10.060553 -0.36013213
8.1923962 9.7299986 -0.89393729
7.6001506 9.7037344 -0.78510898
7.0242906 9.742816 -0.70307326
6.3876405 9.5480013 -0.58767176
3.6159215 6.1019874 0.00088737998
5.6467824 10.29156 -0.05089565
3.761384 6.1532469 -0.25037038
5.7284141 10.125886 -0.45999151
23.243689 28.303616 0.92258394
22.967079 30.243395 1.1753187
17.395542 20.635406 -0.23236792
16.09362 20.599174 -0.036299109
14.723147 20.971699 0.98190391
13.182408 20.306982 1.0920293
25.722012 35.530933 0.0044555999
13.735658 20.547012 0.23992828
3.0648489 5.3934355 -1.0933092
2.9875538 5.8872647 -1.086905
4.2604647 5.282639 -1.763796
3.6968019 5.2478633 -1.6073786
2.7340481 5.69066 -1.385291
2.9854834 5.2449222 -1.7308011
5.0486383 5.6581964 -1.2055417
4.2951307 5.8256125 -1.4217588
7.8590145 9.5490723 -1.3098018
7.3537316 9.5363693 -1.2013324
3.6932766 6.0157018 0.26231202
5.7505598 10.098169 0.36670256
6.7104936 9.5256815 -1.0953712
6.3765726 9.7616415 -1.0135087
6.8523197 9.4565172 -1.4902438
6.4714284 9.6079998 -1.4196877
3.6583421 6.1383877 -0.50346845
5.2414551 9.4995165 -0.80631316
3.8035574 6.1904407 -0.77103722
5.423245 9.5222244 -1.2037714
7.6859884 10.028496 -0.3596817
8.2293768 9.7118034 -0.89480478
7.6933665 9.7597857 -0.79334241
7.0149179 9.6659136 -0.69790375
6.3720579 9.459939 -0.58197677
3.6216719 6.0683312 0.00164908
5.6549978 10.22997 -0.049792301
3.803849 6.1787105 -0.25318325
3.5672271 6.2396078 -0.20350379
23.396236 28.307484 0.92454237
15.57119 20.357275 0.85980153
17.505611 20.633987 -0.23350932
16.19282 20.592571 -0.036820829
14.635282 20.708374 0.97383732
13.290897 20.334112 1.0950348
25.841753 35.461266 0.0043909699
3.1543946 5.5094204 -1.1223826
2.7715423 5.4148502 -0.98980123
4.2903161 5.2857151 -1.7697892
3.7143903 5.2377925 -1.6079086
2.6906083 5.5541272 -1.3507138
3.0009887 5.2338662 -1.7302027
4.9409442 5.5035648 -1.1721666
4.7070355 5.8085337 -1.1363403
4.3227735 5.8246136 -1.4251566
7.8991275 9.5365448 -1.3117625
7.4042988 9.5399418 -1.2053082
3.7417798 6.0515909 0.2627587
5.7713504 10.060948 0.36639756
6.7115512 9.4640894 -1.0897791
6.3865099 9.7099428 -1.0095259
6.8936906 9.4509068 -1.4931409
6.4805326 9.5564346 -1.4143655
3.6786377 6.1285667 -0.50366849
5.2886086 9.5143719 -0.80968463
3.8439603 6.21209 -0.77643448
5.4688573 9.5327024 -1.2078879
7.7284069 10.018562 -0.36049244
8.2533665 9.6783352 -0.89393729
7.6646729 9.6604862 -0.78559327
7.1278396 9.7563677 -0.70854688
6.4106717 9.453105 -0.58308798
3.6510792 6.0740199 0.00106314
5.6812925 10.20166 -0.049527481
5.9472399 9.565402 -0.50991964
3.5620563 6.1850238 -0.2006245
23.540075 28.299908 0.9262265
22.995852 29.889219 1.1685741
17.621042 20.638155 -0.23478116
16.305771 20.602804 -0.03754751
13.350321 20.285578 1.0947416
26.005114 35.45084 0.0039848201
22.875284 33.788052 0.26170343
3.1785936 5.5113463 -1.1251328
2.7796016 5.3886075 -0.98612303
4.3165932 5.2841702 -1.774148
3.7387145 5.2370534 -1.6116186
2.6835301 5.4949083 -1.3369777
3.0270314 5.2408972 -1.7361851
4.898581 5.4224825 -1.1563573
4.3575025 5.8328667 -1.4311025
7.9331727 9.5469847 -1.3154384
7.4350944 9.548707 -1.2083484
5.9871225 9.6198549 0.29638684
3.5299819 6.11093 0.30343458
6.7668629 9.5101213 -1.0976081
6.3875589 9.6782885 -1.0068008
6.9038363 9.4336891 -1.4919821
6.4999757 9.552803 -1.415486
3.6882589 6.1227813 -0.50366849
5.3122411 9.5217247 -0.81137049
3.8726382 6.2362809 -0.78129202
8.338666 9.7469749 -0.90330607
7.6922188 9.6640568 -0.78720772
7.1313305 9.7291031 -0.70702648
6.4568334 9.4892807 -0.58697724
3.6710036 6.0853577 0.00047724001
5.6846771 10.170006 -0.04895376
5.9696798 9.5678844 -0.51081467
3.5598524 6.1586342 -0.19924247
23.655022 28.347292 0.92838073
22.952448 29.735878 1.164793
17.695112 20.659016 -0.23582475
16.382826 20.633598 -0.038218319
14.748982 20.661943 0.97468644
13.436046 20.346361 1.0983335
15.267809 20.763216 0.087956831
13.972946 20.55105 0.24011236
3.1219499 5.3945971 -1.0992024
2.9341877 5.6694164 -1.0460773
4.3321719 5.2863417 -1.7774172
3.7514529 5.2374287 -1.6137388
2.7362542 5.5815983 -1.3616079
3.0400798 5.2443709 -1.7391763
5.0570803 5.5791092 -1.1960561
4.7157087 5.7633395 -1.131265
4.3831468 5.8478498 -1.4370484
4.1261706 6.1208906 -1.3848164
7.9950476 9.56001 -1.321565
7.4882793 9.5550508 -1.2127918
6.0429049 9.6416063 0.29676971
3.542172 6.0876822 0.30324051
6.8129663 9.5113955 -1.1007395
6.4146485 9.6531916 -1.0061718
6.9299164 9.407177 -1.4911131
6.5656571 9.584691 -1.4244497
3.6950209 6.0907903 -0.50126797
5.3499064 9.5188894 -0.81286895
3.9249723 6.276052 -0.78965783
3.6625257 6.2974954 -0.72728938
8.330163 9.6755056 -0.89810127
7.8232393 9.7660704 -0.80028445
7.3126736 9.9101171 -0.726336
6.9035668 10.080554 -0.63851023
3.7183027 6.1198196 -0.00110476
5.7029266 10.127669 -0.048335869
5.9943876 9.5406408 -0.51017541
3.5831807 6.1543341 -0.19970313
23.816057 28.358521 0.93057406
22.961214 29.554609 1.1612674
17.805691 20.656279 -0.23696615
16.480003 20.622669 -0.03870279
14.790473 20.58305 0.97347337
13.561787 20.397312 1.1024384
29.463982 39.766159 -0.021519709
14.078065 20.566502 0.2402098
3.1548009 5.4118013 -1.1054885
2.8644977 5.4907331 -1.010399
4.3633876 5.2905741 -1.7839552
3.7769659 5.2380915 -1.6179789
2.7350035 5.5345693 -1.3511876
3.0594532 5.2397242 -1.7409712
4.9147601 5.3891845 -1.153898
4.7412829 5.7576494 -1.1332952
4.4145107 5.8511634 -1.4417202
4.2700901 6.2930384 -1.4312361
8.0519485 9.5666809 -1.3267114
7.5366597 9.5549126 -1.2162997
6.0217414 9.5415115 0.296004
3.5482159 6.0540471 0.30288008
6.8334851 9.4770699 -1.0989501
6.4239979 9.6015358 -1.002189
6.9523401 9.3758392 -1.4893748
6.5979757 9.5672836 -1.4250098
3.7329223 6.1096506 -0.50486881
5.3915062 9.5228577 -0.81511664
6.0271134 9.5447664 -1.3188603
3.6573803 6.2430849 -0.72085738
8.0610447 9.9994946 -0.82708365
7.1648979 9.6473351 -0.70352936
6.8911681 9.9946623 -0.633093
3.7805436 6.1778684 -0.00350708
6.031826 9.5335531 -0.51107043
3.5964732 6.1326909 -0.19901207
18.705318 22.140211 0.77292597
16.047567 20.509453 0.87032735
17.91247 20.648537 -0.23800971
16.588522 20.625383 -0.039354939
14.896125 20.593136 0.97559613
13.703498 20.470951 1.1075698
15.426696 20.70533 0.087735288
14.05195 20.390335 0.23999324
3.1817856 5.4187331 -1.1094174
2.8781021 5.474731 -1.0089276
4.3873272 5.2857523 -1.7872245
3.8025148 5.2386494 -1.622219
2.7592483 5.5398932 -1.3549768
3.0817451 5.239933 -1.7445605
5.0506082 5.5023999 -1.1851653
4.6491251 5.6087832 -1.1035208
4.3853693 5.775177 -1.4247317
4.2634616 6.2406983 -1.4214636
8.0909643 9.5519228 -1.3284268
7.5888076 9.5592375 -1.2205092
13.020385 20.43243 0.39926535
3.5641861 6.0376935 0.3027969
6.8784447 9.4764328 -1.1018579
6.4452682 9.5680904 -1.000512
6.6358771 9.5579138 -1.4269707
3.7793705 6.141861 -0.51006997
5.434164 9.5283899 -0.81755161
6.0816126 9.5641909 -1.325067
3.6769738 6.2315645 -0.72085738
8.0022106 9.8624811 -0.81545991
7.195169 9.6247807 -0.70352936
6.9395428 9.9975863 -0.63517654
5.9214315 9.5809059 -0.12133646
3.5184624 6.1370201 0.0520695
6.0961871 9.5683441 -0.51516181
3.6227849 6.1334229 -0.19981828
18.707352 22.002184 0.77088928
16.144041 20.499811 0.87165582
18.025961 20.64786 -0.23921634
16.694704 20.624508 -0.039969832
13.740973 20.387997 1.1058105
29.673584 39.527496 -0.021215079
14.167158 20.420086 0.24011506
3.703424 6.2539716 -1.3066459
2.9144578 5.5022254 -1.0166519
4.4125061 5.2823143 -1.7910385
3.8292484 5.2406521 -1.6269894
3.1099465 5.2498794 -1.7517393
5.3642254 5.8051114 -1.2628064
4.7144985 5.6518397 -1.1163779
4.4464154 5.8171186 -1.4400214
4.2786288 6.2208047 -1.4198347
5.212697 6.1292014 -0.77629679
7.6262193 9.5446777 -1.2219123
13.19702 20.56636 0.40092444
3.5790727 6.0195756 0.30268601
6.9634557 9.5300789 -1.112371
6.4686184 9.5379047 -0.99925435
6.6783094 9.554903 -1.4300519
3.8313291 6.1822777 -0.51627141
6.1405835 9.5900345 -1.3323534
3.6935108 6.2148581 -0.72008556
7.9413404 9.72439 -0.80367464
7.260241 9.6482668 -0.70793867
6.9652185 9.9675484 -0.63448197
5.9514999 9.5622578 -0.12133646
3.5357366 6.1224666 0.052157771
6.2949438 9.8108273 -0.53510743
3.6410203 6.1202927 -0.19970313
18.732132 21.891695 0.7695576
16.275337 20.533672 0.87441504
18.146229 20.654175 -0.24058604
16.798525 20.62007 -0.04054746
14.918703 20.354139 0.97013754
13.840806 20.397694 1.1081562
29.779512 39.41016 -0.021076631
3.6755574 6.1633177 -1.2881802
2.9381568 5.5052104 -1.0192266
4.4364753 5.2772937 -1.7943076
3.8514366 5.2363415 -1.6296393
3.1283929 5.2433534 -1.752936
5.0581689 5.4418116 -1.178139
4.679224 5.5734062 -1.1021674
4.4275532 5.7552352 -1.4268553
4.348062 6.2799501 -1.4381583
8.1896877 9.5460119 -1.3357787
7.6772742 9.5470295 -1.225888
13.12133 20.308249 0.39886653
3.6010311 6.0134602 0.30276918
6.9685602 9.4745865 -1.1076736
6.527617 9.5603085 -1.0047045
6.7298799 9.5646935 -1.4353741
5.9180121 9.4564896 -0.90656102
3.6197159 6.2374511 -0.46410084
6.3571172 9.858408 -1.3790399
3.7099814 6.1981072 -0.71931374
7.9806919 9.7101898 -0.80480474
7.3520999 9.7063484 -0.71569288
7.0159574 9.9733973 -0.63684338
5.9719234 9.5282888 -0.12080914
3.5389712 6.0836153 0.052863929
6.3355179 9.8060675 -0.53625822
3.6612511 6.110539 -0.19981828
18.719831 21.738859 0.76712924
16.367167 20.516848 0.87553906
18.253464 20.644962 -0.24162959
16.899958 20.612074 -0.041087821
15.225033 20.635077 0.98251045
13.930716 20.392092 1.1098422
19.80471 26.053528 0.055861551
23.120266 32.909691 0.26091298
3.745693 6.235611 -1.3078245
2.9665251 5.5167756 -1.0236404
4.4703565 5.2839613 -1.8019354
3.8747916 5.2334862 -1.6328193
3.1478212 5.2383933 -1.7547305
5.0968418 5.4488235 -1.18376
4.7258482 5.5934124 -1.1099494
4.4371996 5.7305088 -1.4238824
4.3844852 6.290411 -1.4442663
8.2469416 9.5517321 -1.3409251
7.7221832 9.5414238 -1.2286943
13.292117 20.431103 0.4004299
3.6045074 5.9763741 0.30235332
7.0148954 9.4749746 -1.1108053
6.7732372 9.8549442 -1.0449522
4.6005306 6.0589242 -0.89431489
6.7633162 9.5483599 -1.4362144
5.980701 9.4899654 -0.91276252
3.6402917 6.2277727 -0.46428823
6.3761435 9.8201313 -1.3760713
3.7263799 6.181314 -0.71854186
8.0212946 9.6973801 -0.80609626
7.3413315 9.6293726 -0.71052337
7.0495515 9.9545698 -0.63712114
6.0146766 9.5297375 -0.12151223
3.5650959 6.0845709 0.05255498
6.322608 9.7192926 -0.5311439
3.6845305 6.1058612 -0.200279
18.705444 21.584822 0.76466167
16.5028 20.554266 0.87845159
18.371456 20.647223 -0.24293403
17.012938 20.617544 -0.041795891
15.142976 20.389896 0.97505027
13.957387 20.293844 1.1074231
19.902273 26.011822 0.055741549
14.616276 20.649963 0.24071872
3.7622001 6.2187905 -1.3066459
3.003356 5.5438085 -1.0313646
4.4695454 5.2493134 -1.7943076
3.9004822 5.2336226 -1.6370597
3.1652565 5.2301078 -1.7553287
5.10987 5.4284978 -1.182706
4.7179651 5.5484147 -1.1031824
5.2056661 5.2866387 -1.568105
4.6230111 6.1968117 -1.1097864
4.4648342 5.7288389 -1.4272801
4.3896728 6.2557192 -1.4389728
5.3537512 6.1755204 -0.79198098
7.7859044 9.5587673 -1.2350086
13.469305 20.561436 0.40207303
3.6397758 5.9924288 0.3027969
7.1041851 9.5324364 -1.1219893
6.8098078 9.8418055 -1.0460004
4.5966105 6.0146446 -0.88881052
6.8127661 9.5545177 -1.4409764
6.0243993 9.492938 -0.91536307
3.6467881 6.1939511 -0.46185321
6.3917322 9.7768631 -1.3722932
3.7560148 6.1865668 -0.7211147
8.0835295 9.7104979 -0.81013232
7.4385085 9.6931324 -0.7188859
7.0877213 9.9421339 -0.63795459
6.0650353 9.5428047 -0.1226255
3.583185 6.0716138 0.052599121
6.3487234 9.6927099 -0.5306325
3.7304952 6.1387162 -0.20327348
18.665283 21.402466 0.76144999
16.54847 20.47897 0.87768519
18.488316 20.647457 -0.24420591
17.115915 20.610184 -0.042354882
15.275282 20.433413 0.97850746
14.263053 20.600151 1.1230369
30.145969 39.12299 -0.02104893
3.7437463 6.1451125 -1.2921091
3.0273018 5.5464516 -1.0339392
4.4872627 5.236711 -1.7948524
3.9227231 5.2290316 -1.6397096
3.1916745 5.2363906 -1.7613111
5.1336951 5.4195409 -1.1844627
4.7545185 5.556097 -1.1082577
5.2483978 5.2964606 -1.5766897
4.5960202 6.1208467 -1.0972794
4.4149547 5.628912 -1.4034961
4.4171767 6.253119 -1.4418231
8.340847 9.5385056 -1.3472968
7.8271985 9.548111 -1.2371134
13.628682 20.662493 0.40344495
3.6575453 5.9792547 0.30276918
7.1125665 9.4815016 -1.1179631
6.8440914 9.8252668 -1.0466292
4.6203299 6.0064316 -0.88996923
6.8623166 9.5604601 -1.4457383
6.0800009 9.5141506 -0.92016423
3.6722836 6.1927614 -0.46297699
6.4125743 9.7418594 -1.3698643
3.7713165 6.1679535 -0.72008556
8.0897293 9.6559734 -0.80706495
7.5165958 9.7311659 -0.72481561
7.1084809 9.9052086 -0.63670444
13.228493 20.613903 -0.50910121
3.6052864 6.0654945 0.05246672
6.3692174 9.6577444 -0.52948177
3.7787719 6.174757 -0.20649828
18.555492 21.142498 0.75620157
16.61272 20.426884 0.87768519
18.59329 20.633804 -0.24518426
17.23694 20.623888 -0.043174729
15.347821 20.396498 0.97893196
14.303731 20.520784 1.1214975
16.129429 20.816879 0.085362993
22.99987 32.090199 0.2599141
3.805326 6.2016993 -1.3082174
3.0494118 5.545547 -1.0357784
4.50244 5.221127 -1.7943076
3.9566536 5.2396984 -1.64766
2.9318342 5.6198363 -1.3914485
3.2161503 5.239315 -1.7660968
5.5297356 5.7982602 -1.2821288
4.8757081 5.662488 -1.1356635
5.2650104 5.2799468 -1.5766897
4.574574 6.052969 -1.086376
4.545754 5.7572665 -1.4429944
4.455997 6.2664046 -1.4487453
8.4101992 9.556881 -1.3546487
7.8785882 9.5495672 -1.2410891
13.701281 20.631235 0.40355662
3.7065451 6.0172248 0.30357319
7.1519251 9.4717789 -1.1197524
6.8487387 9.7662067 -1.0418079
4.5807676 5.9169812 -0.87606335
6.901567 9.5517187 -1.4479793
6.2946558 9.7807388 -0.95437205
3.686646 6.1726298 -0.46204048
6.4255705 9.6952772 -1.3655466
3.8154867 6.1966987 -0.72626024
8.1841154 9.7068472 -0.81513709
7.5606279 9.7247944 -0.72648799
7.1395612 9.8828297 -0.63670444
13.321441 20.615873 -0.51062465
3.632489 6.0678945 0.052113641
6.3962011 9.6327076 -0.52909821
5.9092083 9.6159506 -0.43995166
18.725174 21.200911 0.7592566
23.169224 28.322588 1.1399604
18.714495 20.637455 -0.24655394
17.340218 20.615591 -0.043733731
15.572565 20.559967 0.98699862
14.333735 20.426636 1.1192983
23.072523 29.567377 0.03380933
25.629396 35.527668 0.26576933
3.834121 6.2046967 -1.3117534
3.0772188 5.5548987 -1.0398244
4.5137959 5.2011251 -1.7921282
3.9813051 5.2379584 -1.6513702
2.8902655 5.49684 -1.3601869
3.239666 5.2405205 -1.7702847
2.9057465 5.2808752 -1.6739976
5.2675018 5.4905562 -1.2101088
4.8793292 5.6307082 -1.1319418
5.2843404 5.2661223 -1.5775932
4.597168 6.0432711 -1.087338
4.4677196 6.2412038 -1.445895
8.4718409 9.5660086 -1.3605303
7.9288034 9.5492592 -1.2448308
13.745993 20.558182 0.40326947
5.9176931 9.5687637 0.36157346
7.2371273 9.5219278 -1.1300418
6.9468589 9.8406553 -1.0541756
4.6017785 5.905673 -0.8766427
6.9512844 9.5572548 -1.4527411
6.3166671 9.7475729 -0.95277178
3.6968396 6.1456256 -0.46035469
6.4405494 9.6519966 -1.3617686
3.8567598 6.2201567 -0.73166311
8.2158604 9.6826086 -0.8152985
7.6385393 10.044453 -0.30051982
7.5775909 9.6837454 -0.72481561
7.1331377 9.8086348 -0.63225955
13.405805 20.604059 -0.51167935
3.6607707 6.0718966 0.051716428
6.4219823 9.605937 -0.52858675
5.9456725 9.6075392 -0.44064271
18.735844 21.079254 0.75761157
16.924847 20.54604 0.88509405
18.826471 20.630211 -0.24769534
17.44879 20.612951 -0.044367239
22.957561 30.093052 1.3528473
14.503779 20.531794 1.1260422
16.18325 20.617661 0.085935287
25.746769 35.455063 0.26578289
3.8723524 6.2225227 -1.3188252
3.0528131 5.4694986 -1.0236404
4.0036316 5.2330585 -1.6540201
3.0113101 5.6856236 -1.4146577
3.2622077 5.2400107 -1.773874
2.9278469 5.2817845 -1.6774908
5.3780465 5.569983 -1.2339984
4.7640886 5.4618673 -1.0970923
5.3244748 5.2727175 -1.5852742
4.6076932 6.0178537 -1.085093
4.4622407 6.192102 -1.4369369
8.5058203 9.5437851 -1.3612654
7.9816303 9.5517874 -1.2490404
5.9687886 9.5841255 0.36212796
7.2561059 9.4849625 -1.1280286
7.0087523 9.8626261 -1.0598354
4.6154013 5.8849764 -0.87548387
6.997602 9.5577765 -1.4566627
6.3297982 9.7010546 -0.94957089
3.7335618 6.1629977 -0.46353894
6.4608598 9.6169348 -1.3593398
3.9201491 6.2788253 -0.74246889
8.2901459 9.7083845 -0.82078749
7.7053757 10.066354 -0.30286276
7.7502503 9.8397589 -0.74230063
7.254396 9.9103346 -0.64295512
3.715929 6.1203184 0.050171729
6.4141073 9.5295048 -0.5242396
5.9684591 9.5769348 -0.4398365
18.737911 20.948812 0.75573152
23.481823 28.339731 1.1453766
18.838375 20.513575 -0.2464235
17.554911 20.606791 -0.04496352
22.981302 29.928864 1.3493296
14.538133 20.44375 1.1241364
16.292625 20.623171 0.085602991
15.13931 20.692438 0.24117891
3.9096839 6.238513 -1.3255044
3.088151 5.4925146 -1.0306289
4.0306954 5.2341657 -1.6587903
2.9955633 5.6125712 -1.3971324
3.2857962 5.2410254 -1.7780616
2.9499793 5.2826085 -1.680984
5.4850082 5.6445479 -1.256834
4.9767752 5.6712704 -1.1481824
5.3507662 5.2654972 -1.5884372
4.6507831 6.0345392 -1.091507
4.6342769 5.7566748 -1.4548864
4.4679379 6.1589861 -1.4320505
8.555685 9.5391426 -1.3649415
8.0230742 9.5403719 -1.2511451
13.973778 20.616993 0.40467331
5.9829874 9.5398779 0.3617121
7.2907286 9.4684095 -1.1289234
6.9993186 9.7838554 -1.0524987
4.6387916 5.8766446 -0.8766427
7.036963 9.548521 -1.4589036
6.3525667 9.6694984 -0.94817066
3.7673366 6.1750894 -0.46616125
6.4776711 9.5769243 -1.3561014
6.008956 9.5832596 -1.2495673
8.3218985 9.6838083 -0.8209489
7.718617 10.01839 -0.30165094
7.8357744 9.8840113 -0.74899054
7.2359257 9.8199301 -0.63712114
12.854729 19.490499 -0.47552776
3.7724648 6.1701636 0.0485829
6.4586163 9.530757 -0.52590173
5.9784226 9.525959 -0.43764824
18.715246 20.791838 0.75314653
23.620632 28.32575 1.1473694
18.834795 20.380926 -0.24479292
17.675467 20.616882 -0.045764729
22.980991 29.734797 1.3446594
14.757953 20.61591 1.1339591
16.39472 20.618814 0.085326061
15.226742 20.6754 0.24123035
3.9345243 6.2344737 -1.3274688
3.1265495 5.5205069 -1.0387208
4.0601797 5.238194 -1.6646206
3.0177464 5.6117096 -1.3995007
3.3073721 5.2387252 -1.7810528
2.9740062 5.2866883 -1.6856414
5.4184599 5.5416965 -1.2354037
4.9204826 5.571135 -1.1288966
5.3952341 5.2758098 -1.5974736
4.4665747 6.116385 -1.424721
8.0661583 9.5612183 -1.2562901
13.993753 20.576841 0.4044978
5.9947805 9.5253849 0.36162889
7.3652959 9.533885 -1.1398838
7.0586171 9.8343458 -1.0604643
4.7257543 5.9668179 -0.89489436
7.0683856 9.5597849 -1.4628253
6.3545589 9.6395998 -0.94577003
3.7894347 6.1895866 -0.468409
6.4927049 9.5667362 -1.3561014
6.0092678 9.5502739 -1.2459652
7.7119012 9.6971722 -0.73196161
7.1709213 9.6992865 -0.62767577
12.915165 19.515265 -0.47710979
5.884131 9.6178751 -0.040656511
6.5152402 9.5815744 -0.5306325
6.0007987 9.5284004 -0.43845445
18.710316 20.720896 0.7520498
23.722775 28.357664 1.1496687
18.813711 20.294176 -0.24352108
17.750816 20.639172 -0.046379641
22.939396 29.584984 1.3402926
14.747239 20.532598 1.1312469
16.453308 20.625845 0.085132219
15.288869 20.691698 0.24129802
3.9738533 6.2745714 -1.3384696
3.0734904 5.4059548 -1.0151806
4.0719709 5.2363629 -1.6662105
3.1383085 5.8160281 -1.4572871
3.3186808 5.2383471 -1.7828476
2.9860408 5.2886906 -1.68797
5.457593 5.5640006 -1.2431326
4.8393869 5.4612832 -1.1055509
5.4105129 5.2741036 -1.5997328
4.5963602 5.9069009 -1.0696999
4.5521984 6.213872 -1.4515955
5.2210312 5.7814565 -0.74468356
8.1153975 9.5585756 -1.259798
13.997241 20.443718 0.40363637
7.4221315 9.5451517 -1.1448047
7.1103907 9.8411808 -1.0642376
4.6429009 5.8253961 -0.87113833
7.1184316 9.5645761 -1.4675871
6.3660483 9.5914412 -0.94236934
3.8483467 6.2421985 -0.47552669
6.550776 9.5871286 -1.3628479
6.0561724 9.5581884 -1.2500818
7.7685733 9.7055302 -0.73515451
7.2654996 9.7632732 -0.63517654
5.9080553 9.5891094 -0.040391698
7.1041131 10.373397 -0.59379375
6.0562816 9.550024 -0.4412185
18.720148 20.601377 0.75044399
18.670506 22.167601 0.94548941
18.81321 20.166288 -0.24198836
17.863958 20.639288 -0.047069062
15.978616 20.487392 0.99276048
14.817534 20.494259 1.1316134
16.560667 20.627022 0.084818378
15.394342 20.698156 0.24139006
3.9596233 6.2092624 -1.3258972
3.0865827 5.38943 -1.0137093
4.1003518 5.2386813 -1.6715108
3.1897388 5.8677249 -1.4743388
3.3464899 5.2455435 -1.789428
3.0054619 5.2842827 -1.6897168
5.4889274 5.5607896 -1.2466458
4.8669777 5.4578552 -1.1082577
5.452333 5.2813888 -1.6078656
4.6907024 5.9885249 -1.0895828
4.5774407 5.5964141 -1.4200599
4.5855846 6.2184949 -1.4564819
8.1582575 9.5481634 -1.2621367
14.031835 20.356863 0.40322161
12.926467 20.311041 0.5393725
7.4226003 9.4842901 -1.1394365
7.1529346 9.8349056 -1.0663338
4.7532058 5.9246902 -0.89257669
7.1626492 9.5612173 -1.4709486
6.3861628 9.5565271 -0.94056892
5.8760853 9.4903393 -0.83572054
6.5864954 9.5746546 -1.3641973
6.1031752 9.5659094 -1.2541983
7.7751918 9.6516237 -0.73226571
7.2603531 9.69242 -0.63100946
5.9297471 9.5568905 -0.04003863
7.1571183 10.380565 -0.59609514
6.2639956 9.8107119 -0.4603371
18.725338 20.477592 0.74872059
18.65094 22.003521 0.94196379
18.818924 20.04591 -0.24061863
17.975941 20.6374 -0.047739848
16.062672 20.46224 0.99373096
14.87949 20.444374 1.1314667
16.659363 20.616865 0.084569141
15.474848 20.670527 0.24142525
3.9556706 6.1605725 -1.3172537
3.6554713 6.3458381 -1.2218941
4.1251836 5.2363458 -1.675221
3.0663638 5.5963726 -1.4018689
3.3702188 5.2462144 -1.7936158
3.0286553 5.2864656 -1.6937921
5.4799175 5.517066 -1.2399708
5.3981314 6.0194592 -1.2408888
5.4773464 5.2723136 -1.6105766
4.5585103 5.7835898 -1.0501378
4.5423608 6.1189437 -1.4344937
8.2101746 9.5481367 -1.2661123
14.191638 20.450603 0.40456164
13.091465 20.428707 0.5419786
7.4708571 9.4843044 -1.1427917
7.1627069 9.7834549 -1.0625606
4.6731663 5.7884336 -0.8696897
4.6414318 6.1399612 -0.86982447
6.4027777 9.5166359 -0.93816841
5.9405065 9.5276737 -0.84190166
6.6233325 9.5636759 -1.3658165
6.3276095 9.8508368 -1.301023
7.9767208 9.8374596 -0.75294363
7.2560301 9.6232891 -0.62698126
5.9481287 9.5195351 -0.039553139
7.1508827 10.302362 -0.59174806
6.2807975 9.7691212 -0.45883983
18.739424 20.364273 0.74727142
18.712194 21.935692 0.94165719
18.090725 20.638027 -0.048447918
16.207529 20.513556 0.99767327
14.995541 20.468529 1.1346922
16.769527 20.620245 0.084236838
3.9685805 6.1382575 -1.3148963
3.6136117 6.2269793 -1.1987215
4.1512446 5.2354121 -1.679461
3.1249418 5.6617298 -1.4227101
3.3918986 5.2435908 -1.796607
3.0509429 5.2868934 -1.6972852
5.4874463 5.4901094 -1.2375115
5.0117097 5.5504484 -1.1366786
5.5193071 5.2792344 -1.6187094
4.5532422 5.7399383 -1.0440446
8.280324 9.568944 -1.273362
14.259251 20.410833 0.4046095
13.194545 20.448019 0.54297674
7.5501361 9.5229778 -1.1517389
7.2028184 9.773735 -1.0642376
4.7940955 5.8993049 -0.89344585
4.659503 6.1237712 -0.86954445
6.4259224 9.4866047 -0.93696809
5.9872856 9.5359879 -0.84489858
6.6749463 9.5736609 -1.3709439
6.3477902 9.8142347 -1.2984505
7.9405913 9.7306061 -0.74488533
7.5039225 9.8885803 -0.65212268
5.9896746 9.5194464 -0.04003863
7.1751847 10.268412 -0.59085304
6.3017216 9.7342358 -0.45780325
18.733942 20.230545 0.74527395
18.705553 21.788746 0.93869364
18.823128 19.799856 -0.23774882
18.200401 20.63213 -0.04908143
16.308018 20.507881 0.99943215
15.10715 20.485708 1.1376243
16.878613 20.621588 0.083913758
24.736862 32.638351 0.26190645
4.0018277 6.1470757 -1.3200039
3.618367 6.1900849 -1.1932044
4.1785498 5.2358699 -1.6842312
3.2280204 5.8067679 -1.4658129
3.4125464 5.2392898 -1.7989998
3.0684905 5.2789416 -1.6978674
5.5943227 5.561388 -1.2599958
5.1360841 5.6532187 -1.1640846
5.5471978 5.2725701 -1.622324
4.5860972 5.7440662 -1.0478929
4.7531595 5.6996908 -1.4616818
8.3233614 9.5578842 -1.2757007
14.306026 20.341412 0.40437019
13.254373 20.399748 0.54286581
7.5725613 9.4899044 -1.1503968
7.1921353 9.6950569 -1.0569007
4.8629289 5.9453135 -0.90503407
4.7014966 6.1390495 -0.87486655
6.4871941 9.512332 -0.94256938
6.0310001 9.5390406 -0.84733367
6.717555 9.5704565 -1.3739125
6.3753576 9.7892475 -1.2976785
8.0662899 9.8209925 -0.75628865
7.4866447 9.8014307 -0.64656657
6.0494084 9.5479422 -0.04127438
7.17977 10.206696 -0.58778447
6.3170624 9.6909361 -0.45619088
18.742826 20.113121 0.74370724
18.679909 21.620853 0.93501472
18.828508 19.681427 -0.23641174
18.318186 20.63472 -0.04982676
16.524956 20.646799 1.0068316
15.13575 20.389959 1.1354251
16.987877 20.622438 0.083590686
29.897139 39.199272 0.27320278
3.6814125 6.2533836 -1.2093883
4.2059011 5.2362056 -1.6890014
3.4363637 5.2396817 -1.8031876
3.0889001 5.2758961 -1.7001963
5.8562799 5.7837458 -1.321125
5.0849147 5.5611696 -1.1464906
5.5779448 5.2684445 -1.6268421
4.5892167 5.711215 -1.0440446
4.7167931 5.6205463 -1.4434192
8.3807726 9.5631189 -1.2806119
13.308552 20.342937 0.54261631
7.6223001 9.4908199 -1.1539757
7.1501727 9.5750446 -1.0441138
4.6075397 5.5993962 -0.8421675
4.6208515 5.9937353 -0.85161704
6.7351456 9.808033 -0.98117816
6.0843773 9.5570545 -0.85145438
6.7636476 9.5719299 -1.3776906
6.3843989 9.7359514 -1.2925329
8.0588903 9.7495718 -0.75172734
7.4579735 9.7002325 -0.63976032
13.095974 20.582806 -0.33026528
7.3911085 10.436191 -0.60760224
6.3321881 9.6476393 -0.45457846
18.749777 19.994394 0.74210137
18.692696 21.498648 0.93286872
18.830547 19.560291 -0.23500942
18.432163 20.632305 -0.050516199
16.6387 20.655455 1.009197
15.381318 20.585865 1.1465673
17.089636 20.613588 0.083322987
30.001881 39.081352 0.27316219
3.7050254 6.2485671 -1.2108597
4.2320747 5.2349272 -1.6932415
3.1781616 5.6320271 -1.4227101
3.4623303 5.243155 -1.8085716
3.1122129 5.2777324 -1.7042716
5.7010441 5.5962358 -1.277913
5.0372038 5.4738665 -1.1299117
5.6243944 5.2787957 -1.6363306
4.5909271 5.6768732 -1.0398756
4.7242947 5.5937929 -1.4400214
4.6696949 6.1285267 -1.4520028
8.430439 9.559124 -1.2841197
14.742768 20.68401 0.40861359
13.374599 20.304369 0.54267174
7.7009354 9.5270004 -1.1626992
7.1587729 9.5238676 -1.0403405
4.6187711 5.5772939 -0.84071898
4.6698766 6.0184045 -0.85861999
6.6365156 9.6005011 -0.95837295
6.2707081 9.7829933 -0.87880135
6.8029065 9.56353 -1.3798494
6.4007978 9.6942959 -1.2891881
8.0882044 9.7226725 -0.75157523
7.4567547 9.6356611 -0.63614881
13.203654 20.608948 -0.33203065
7.2716465 10.20033 -0.59085304
6.3591785 9.6226931 -0.45423299
18.749315 19.868546 0.74029964
18.706224 21.378071 0.93077374
18.834806 19.4422 -0.23367237
18.543646 20.626385 -0.051168341
15.325951 20.377581 1.1392369
17.195366 20.608894 0.083027624
22.959848 29.704319 0.25729102
3.7216337 6.2318211 -1.2097561
4.258285 5.2335339 -1.6974816
3.1996555 5.6287866 -1.4246047
3.4862292 5.2433448 -1.8127594
3.1433308 5.292666 -1.7130042
5.7892923 5.6468072 -1.2954788
5.0970736 5.5044441 -1.1407387
5.6480989 5.2677188 -1.6385896
4.8165097 5.9158425 -1.0931104
4.7532859 5.5922837 -1.4438438
4.6746907 6.0951309 -1.4471166
8.4854202 9.5608721 -1.2885631
14.812343 20.644091 0.4086774
13.651301 20.584133 0.54802263
7.7496881 9.5258493 -1.1660545
7.2161765 9.5378733 -1.0451618
4.6591721 5.5900378 -0.84593368
4.6572075 5.9630184 -0.85133702
6.6597991 9.5698214 -0.95717275
6.3250837 9.800108 -0.88292217
6.8525901 9.5694609 -1.3844371
6.4323144 9.6757956 -1.2894454
7.6237259 10.067068 -0.2259866
8.1084404 9.6850052 -0.75035894
7.5236669 9.6594887 -0.64031595
13.292136 20.604359 -0.33300161
7.2768111 10.140196 -0.58791232
6.3662257 9.5677071 -0.45181435
18.756504 19.751604 0.73873299
18.708614 21.245619 0.9282701
18.841293 19.327145 -0.23240049
18.664646 20.630373 -0.05195095
16.773218 20.556692 1.0094397
15.582645 20.584496 1.1509656
17.311525 20.61599 0.082658388
23.023598 29.594141 0.25722605
3.7351487 6.20997 -1.2075492
4.2845244 5.2320294 -1.7017217
3.285394 5.7387037 -1.4582343
3.5016155 5.2307858 -1.8121612
3.1550653 5.2745352 -1.7100933
6.2296176 6.0355978 -1.4001713
5.3646984 5.7589483 -1.2040092
5.6932869 5.276341 -1.6476262
4.6214809 5.6418247 -1.0385928
4.7695546 5.5758443 -1.4434192
4.6294856 5.9964972 -1.4251282
8.5286131 9.5490093 -1.2909017
14.863049 20.578016 0.40848595
22.837698 34.233292 0.77611446
7.7631645 9.4815006 -1.1631467
7.2653298 9.5405188 -1.0485158
4.6894813 5.5904903 -0.84883082
4.6722612 5.9436755 -0.85049671
6.7264838 9.6009235 -0.96357417
6.3461065 9.7651405 -0.88123643
6.8930793 9.5623293 -1.3868659
6.4472857 9.6324301 -1.2858436
7.6444378 10.02874 -0.2253667
8.18262 9.7112465 -0.75552833
7.5748434 9.6625423 -0.64267725
13.387247 20.609484 -0.33423734
7.3250403 10.139903 -0.58970231
6.3884978 9.5360308 -0.45100814
18.76038 19.63192 0.73708797
18.735521 21.141815 0.92673719
18.841639 19.206535 -0.2309982
18.779123 20.626398 -0.05264036
16.823738 20.486917 1.0087725
15.615782 20.49408 1.1490597
17.421436 20.614925 0.082335308
3.7313504 6.1594486 -1.1990894
4.3132625 5.2333794 -1.707022
3.5083718 5.2055573 -1.806777
3.184365 5.2859583 -1.7176617
6.4704499 6.228364 -1.4549768
5.3599257 5.7175441 -1.1982573
5.7198968 5.2676349 -1.650789
4.5899949 5.568048 -1.0260859
4.7550392 5.5239167 -1.4328014
4.7057161 6.0563393 -1.4446734
15.004183 20.63628 0.40952289
22.841541 34.006912 0.77353609
7.8537388 9.5305557 -1.1738834
7.3061271 9.5318747 -1.0504024
4.8518796 5.7460837 -0.88156784
4.6591048 5.8884788 -0.84321374
6.755465 9.5781193 -0.96337414
6.3702364 9.7351408 -0.88011253
6.9405994 9.5646458 -1.3909137
6.4609466 9.5874186 -1.2819843
7.6856165 10.017379 -0.22591771
8.2686853 9.7507782 -0.76206625
7.608861 9.6434021 -0.643094
13.468322 20.592442 -0.33489943
7.3603935 10.121674 -0.59008592
6.4095254 9.5026493 -0.45008677
18.759533 19.50808 0.7353254
18.742033 21.015644 0.92443788
18.844234 19.088951 -0.22966115
18.80065 20.520069 -0.052044109
17.010427 20.581768 1.014595
15.788204 20.586172 1.1555836
17.528929 20.610323 0.082030699
16.273895 20.636597 0.24204786
4.1136622 6.0656972 -1.3188252
3.7690043 6.177968 -1.2057102
4.3383412 5.2301593 -1.7107321
3.3262343 5.726368 -1.4606026
3.5160847 5.18191 -1.8019912
3.2039139 5.2808471 -1.7194085
5.8251328 5.5757136 -1.291263
5.2120738 5.5237622 -1.1566409
5.7436275 5.2561898 -1.6530482
4.5656896 5.503612 -1.015503
4.8353329 5.5811081 -1.4536122
23.052967 31.474529 0.51720315
22.860964 33.805729 0.77137357
7.9065347 9.5333261 -1.1779096
7.3663235 9.5483122 -1.055643
4.7862744 5.6330848 -0.86273682
4.6505585 5.8396406 -0.83705133
6.8167224 9.6005917 -0.96877539
6.3855019 9.6917696 -0.87749028
6.9905438 9.5699577 -1.3955015
6.4888139 9.5637875 -1.2814698
7.7499437 10.035969 -0.22777747
8.2927866 9.7171841 -0.76130605
7.619318 9.5944118 -0.64087152
13.569177 20.605175 -0.33635581
7.3413162 10.029355 -0.58458805
6.4740024 9.5337534 -0.45365709
18.75252 19.37871 0.73340625
18.7626 20.906031 0.92270064
18.844858 18.970131 -0.22829148
18.804077 20.394686 -0.05120562
17.071159 20.523624 1.014413
15.899143 20.59664 1.1583692
17.641758 20.61133 0.081689149
22.567577 28.449287 0.2556262
3.8088553 6.1996722 -1.2130665
4.3671651 5.2312617 -1.7160321
3.3549275 5.7343817 -1.4658129
3.2264316 5.2805786 -1.7229016
6.0901785 5.7913446 -1.3520409
5.1577239 5.431356 -1.1387086
5.7933631 5.268158 -1.66344
4.7100267 5.6403208 -1.0475723
4.633471 6.1298008 -1.0365545
4.8347883 5.5453315 -1.4476663
4.738853 6.0204816 -1.4430447
15.233322 20.67676 0.41086292
22.879339 33.604752 0.76921099
7.926229 9.4962568 -1.17612
7.4120955 9.5455809 -1.0583681
4.7187166 5.5190554 -0.84361613
4.8316522 6.0295362 -0.87402624
6.8282762 9.5532665 -0.96557462
6.4005575 9.6483974 -0.87486792
7.037056 9.5702658 -1.3992796
6.5411253 9.5761614 -1.2866156
8.3349934 9.7046766 -0.76267445
7.7214785 9.6609764 -0.64892787
13.660316 20.60247 -0.33741504
7.4131546 10.060791 -0.58893514
7.5282364 11.018931 -0.55869389
18.756048 19.261021 0.73180038
18.741167 20.750463 0.91937935
18.844921 18.851498 -0.22692175
18.817774 20.281223 -0.050516199
23.725983 28.327183 1.3255544
16.025002 20.625568 1.1620344
17.75346 20.610312 0.081356853
22.609465 28.318832 0.25552332
4.2912641 6.2412443 -1.3679359
3.8499072 6.2228618 -1.2207907
4.3923001 5.2278194 -1.7197423
3.2479832 5.278585 -1.7258123
6.2174191 5.8746214 -1.378741
5.2100396 5.4523025 -1.1475056
5.8345327 5.272058 -1.6711211
4.6409922 5.523036 -1.0257652
4.6658125 6.1325645 -1.0398992
4.8431253 5.5198641 -1.4446933
15.262209 20.647982 0.41081506
13.943173 20.392399 0.54807806
