# .PCD v0.7 - Point Cloud Data file format
VERSION 0.7
FIELDS x y z
SIZE 4 4 4
TYPE F F F
COUNT 1 1 1
WIDTH 1458
HEIGHT 1
VIEWPOINT 0 0 0 1 0 0 0
POINTS 1458
DATA ascii
-2.3036644 6.5696254 -0.14943929
-2.5266871 6.5418158 -0.10617462
-0.8341884 2.4414976 -0.01101284
-2.9219646 7.8675876 -0.46658492
-2.8815556 6.599771 -0.081492677
-3.1043737 6.533205 -0.040081579
-3.2943127 7.8520503 -0.4365404
-3.5878468 7.8099761 -0.38626271
-3.4859865 6.6007667 -0.01001084
-3.6713152 6.4434786 0.04452255
-4.0214596 7.8840661 -0.35534078
-3.6383691 6.5821295 -0.22273752
-2.1413968 6.1164298 0.33213806
-2.367975 6.1369348 0.37290871
-0.80477852 2.3486772 0.16728729
-2.3505967 6.3418636 0.14423743
-2.6795087 6.1350017 0.40759647
-2.9152393 6.1525431 0.45377421
-2.6549933 6.3217607 0.17526111
-2.896919 6.3321939 0.2159009
-0.70374358 2.3309481 -0.83494508
-0.80127853 2.3363349 -0.82312369
-4.3588328 7.9231319 -1.662207
-4.8922172 7.93361 -1.5955969
-0.68698323 2.2464335 -0.5272631
-0.86196023 2.466471 -0.58201396
-0.62173033 2.2294509 -0.64247608
-0.71386248 2.2188022 -0.63530779
-2.4385281 5.6492591 -1.5342362
-2.8424668 5.775804 -1.5525475
-3.3687565 5.8370829 -1.5700372
-4.0375199 6.2472782 -1.6595393
-0.68405885 2.208993 -0.26506579
-0.85529941 2.4445522 -0.29758376
-0.63273239 2.2187178 -0.3825154
-0.73638749 2.2670658 -0.38847589
-3.3881564 7.872107 -1.2460803
-2.8510416 5.8302689 -0.85289848
-3.2068434 7.9101954 -1.7037681
-2.7375982 5.887444 -1.1999521
-2.9975893 7.8868837 -0.77687216
-3.2345932 6.361887 0.26293418
-3.4746258 6.3302956 0.30570802
-3.382961 7.8236961 -0.74329686
-3.7184815 7.8654914 -0.70158905
-3.2964895 7.9120512 -1.0354027
-3.5935004 7.8871708 -1.0070802
-4.0950589 7.8110518 -0.67170709
-4.4964757 7.9198751 -0.64241832
-4.0172458 7.9200926 -0.99097598
-2.5017991 6.5385408 -0.10563406
-0.80979556 2.3929734 -0.0063284501
-2.8584476 6.6032801 -0.081250302
-3.0829763 6.5411201 -0.040012691
-3.2681105 7.8586726 -0.43623629
-3.5516369 7.7958241 -0.38431811
-3.4597027 6.6010413 -0.0096592801
-3.6173785 6.3959241 0.046023119
-3.9939852 7.8913107 -0.35495728
-3.6167078 6.5917797 -0.22262236
-2.3494062 6.1462073 0.37295982
-0.80050838 2.3606954 0.16712423
-2.3264849 6.3379674 0.14434923
-2.6617973 6.1470637 0.40771776
-2.8933263 6.1562543 0.45355433
-2.6442606 6.3522606 0.17515035
-2.8711812 6.3285351 0.21588196
-0.69488889 2.3278186 -0.83265001
-0.78471333 2.3125854 -0.81191587
-4.323638 7.9178228 -1.6578853
-4.8249888 7.8803186 -1.5805165
-0.67938775 2.2467368 -0.52670246
-0.82831937 2.3966765 -0.56021988
-0.61760998 2.2423496 -0.64642924
-0.70867026 2.2264223 -0.63725507
-2.4290333 5.6764293 -1.5400665
-2.8140473 5.7639003 -1.5463912
-3.3494468 5.845952 -1.5695415
-3.9999352 6.2321935 -1.6514871
-0.68211401 2.2281313 -0.26822764
-0.84827977 2.4490824 -0.29792207
-0.62626672 2.2225754 -0.3829672
-0.72617745 2.2601161 -0.3862645
-3.3657176 7.888165 -1.2470423
-3.8470311 7.9089012 -1.2074399
-3.1783633 7.9111509 -1.7016445
-3.6694767 7.9352989 -1.6678135
-0.8580246 2.4475207 -0.10310505
-2.9699724 7.8888359 -0.77593666
-3.2074347 6.357708 0.26280656
-3.449904 6.332418 0.30556938
-3.3529208 7.8214836 -0.74173111
-3.6861024 7.8609514 -0.6997025
-3.5687017 7.8984218 -1.0070802
-4.0759759 7.8344874 -0.67290741
-4.458796 7.9114485 -0.63998336
-3.9905705 7.9291306 -0.99043632
-4.2683959 7.8204536 -0.93800145
-2.4819579 6.548234 -0.10572416
-0.79982001 2.3879228 -0.0056344401
-0.85156566 2.390795 0.0075686099
-2.8337793 6.6030326 -0.080846347
-3.0504677 6.5254664 -0.03904837
-3.2396314 7.8596716 -0.43547609
-3.5271258 7.8069444 -0.38431811
-3.4352803 6.6047716 -0.0094248997
-3.5785496 6.374197 0.04686166
-3.9665003 7.8984613 -0.35457367
-3.5873299 6.587357 -0.22158578
-2.3243606 6.1386228 0.37255105
-0.75610167 2.2490575 0.16908093
-2.6354382 6.1388364 0.40717191
-2.8654561 6.1472316 0.45282125
-2.6152198 6.3383169 0.17526111
-2.8521109 6.3393455 0.21588466
-0.68454772 2.3193235 -0.82805985
-0.78109932 2.3255527 -0.81639904
-4.2866559 7.9089189 -1.6527778
-4.8135438 7.9172397 -1.5852981
-0.66967791 2.2396333 -0.52389944
-0.78421885 2.2958531 -0.52916336
-0.61341351 2.255244 -0.65038246
-0.69990712 2.223244 -0.63530779
-2.4014931 5.6609125 -1.5331762
-2.8001723 5.781395 -1.5489564
-3.3320141 5.8581347 -1.5700372
-3.9960876 6.2692542 -1.658592
-0.67895573 2.2434986 -0.27068686
-0.79123348 2.3123767 -0.2725462
-0.60524279 2.1718168 -0.37031612
-0.72273958 2.2735002 -0.38891822
-3.3355725 7.8859577 -1.2447975
-2.7780502 5.7734003 -0.84012759
-2.3149159 5.7958851 -1.2051554
-3.6387758 7.9343462 -1.6649632
-0.84717202 2.4407961 -0.10187979
-2.9444764 7.8962679 -0.77570277
-3.1847806 6.3623772 0.2627587
-3.4309521 6.3449793 0.30559713
-3.6597018 7.8688908 -0.6992833
-3.2348068 7.9032683 -1.0307673
-4.0268378 7.7994385 -0.66750616
-4.4290357 7.9167418 -0.63904679
-4.2770519 7.8947649 -0.94700617
-0.84104741 2.4218936 0.077999666
-2.4535744 6.5354533 -0.10473323
-0.7868489 2.3733449 -0.00407298
-0.83381802 2.3653619 0.0099902302
-2.7913034 6.5603342 -0.078584179
-3.0341902 6.5440688 -0.039392781
-3.211931 7.8624163 -0.43486795
-3.5025837 7.8179851 -0.38431811
-3.4044979 6.5959535 -0.0087803798
-3.5487127 6.3679752 0.04730301
-3.9319355 7.8912034 -0.3531673
-3.5589752 6.584569 -0.22066441
-0.81680137 2.3557148 0.25403863
-2.3114514 6.1627173 0.37301093
-0.73926568 2.2209532 0.16960271
-0.82845962 2.3499849 0.18403783
-2.6246731 6.1673522 0.40783906
-2.8486683 6.1616354 0.4530412
-2.587796 6.3279605 0.17535342
-2.8272524 6.3373332 0.21586841
-0.67825526 2.325021 -0.82958978
-0.76775223 2.3104534 -0.80892712
-4.2691822 7.9361839 -1.6559207
-4.7804832 7.9188805 -1.5823554
-0.65949678 2.230644 -0.52053583
-0.7750954 2.2928565 -0.52752876
-0.62323052 2.3230052 -0.67410201
-0.69350213 2.2272315 -0.635957
-2.3881385 5.6791139 -1.5363563
-2.7710221 5.7675557 -1.5422871
-3.3069725 5.8567367 -1.5665659
-3.9868236 6.2981572 -1.6633285
-0.66429657 2.2191262 -0.26576841
-0.77418387 2.2869484 -0.26747108
-0.60783046 2.2095082 -0.37890074
-0.71256751 2.2664883 -0.38670677
-3.3069944 7.8872824 -1.2431939
-3.7792284 7.8955274 -1.2010546
-3.1257465 7.9236846 -1.6999456
-3.6113851 7.9403982 -1.6637416
-0.83261395 2.4227254 -0.099184051
-2.915493 7.8943114 -0.77429962
-3.1621292 6.3669672 0.26271087
-3.3986266 6.3328633 0.3052367
-3.2646496 7.7488647 -0.73032337
-3.2025807 7.8950305 -1.0278702
-3.5052466 7.8899632 -1.0023183
-3.9978063 7.8031816 -0.66650593
-4.4002571 7.9236636 -0.63829762
-3.8873279 7.8455701 -0.9739747
-4.2607293 7.9238591 -0.94932181
-0.83217472 2.4207327 0.078206263
-2.4274051 6.5281668 -0.10401249
-0.73428839 2.2333388 0.0089392802
-0.83314645 2.3867218 0.0083758198
-2.7806895 6.5930438 -0.079634473
-3.0119343 6.549942 -0.039255019
-3.18276 7.8613625 -0.43395558
-3.4739296 7.8198457 -0.38362354
-3.3819501 6.6030512 -0.0086631896
-3.5179756 6.3598833 0.04778849
-3.9062469 7.9017234 -0.35303938
-3.5373225 6.5939603 -0.22054926
-0.81065583 2.3620651 0.25411695
-2.2822294 6.1437483 0.37229556
-0.71596467 2.1717975 0.17048322
-0.82582402 2.3657441 0.18390739
-2.5929675 6.1460481 0.40686864
-2.8276179 6.1669269 0.45289457
-2.5760903 6.3564796 0.17525189
-2.8008027 6.3315759 0.21584676
-0.65912008 2.2843971 -0.81122911
-0.7616868 2.3163657 -0.81042141
-4.2359633 7.9339633 -1.6523849
-4.7515216 7.927125 -1.5808842
-0.65300411 2.2345531 -0.52109647
-0.76032752 2.2734609 -0.52099061
-0.61082792 2.304816 -0.66685444
-0.6865021 2.2293992 -0.635957
-2.3695519 5.6848044 -1.5358263
-2.7780526 5.8284807 -1.5576777
-3.2904394 5.8704839 -1.5675578
-3.9566205 6.2942362 -1.658592
-0.66108459 2.2344608 -0.26822764
-0.76053303 2.2707469 -0.26408765
-0.59794945 2.2000921 -0.37618986
-0.70484453 2.2668595 -0.3862645
-3.2754323 7.8812051 -1.2403078
-3.7825608 7.9662056 -1.2110888
-3.0951922 7.9188848 -1.6965479
-2.5864162 5.752037 -1.1612691
-0.82631403 2.4164922 -0.098203793
-3.1433196 6.3539696 0.26255134
-3.3848758 6.3311553 0.3051258
-3.282994 7.8273888 -0.73927057
-3.6142218 7.868 -0.69718701
-3.1894369 7.8982158 -1.0275805
-3.4880061 7.8846087 -1.0006375
-3.9918363 7.8218784 -0.66790622
-4.3509817 7.8644657 -0.63117987
-3.9081225 7.9192948 -0.98422933
-0.81457371 2.3803186 0.080478556
-2.4143438 6.5244884 -0.10365215
-0.72659004 2.2211862 0.01015374
-0.83680248 2.4086671 0.0065999799
-2.7664924 6.5881782 -0.079230532
-2.9890583 6.527452 -0.03822184
-3.1681852 7.8607979 -0.43349949
-3.4543247 7.8088946 -0.38237345
-3.3661578 6.5976529 -0.0083116395
-3.5031219 6.3566642 0.048009161
-3.8815572 7.8827467 -0.3512494
-3.5203276 6.5872064 -0.21974304
-0.80757016 2.3652349 0.25415611
-2.271873 6.1454539 0.37224448
-0.71916771 2.1938984 0.1701245
-0.81940317 2.3595097 0.18398193
-2.5848415 6.1538067 0.40698993
-2.8045313 6.1423235 0.45172173
-2.5490518 6.3177953 0.17546418
-2.7867858 6.3268318 0.21583323
-0.64964968 2.2640488 -0.80204862
-0.75685549 2.3140454 -0.80892712
-4.211586 7.918066 -1.6472774
-4.7117157 7.8890882 -1.5709532
-0.64794755 2.2300279 -0.51941466
-0.75550014 2.2710142 -0.51990092
-0.61181539 2.3240855 -0.6734432
-0.68242437 2.2286725 -0.63530779
-2.3613489 5.6903048 -1.5363563
-2.7571876 5.8084373 -1.5504954
-3.2737064 5.8620844 -1.5635904
-3.9861422 6.3628821 -1.676591
-0.66345251 2.2563415 -0.2720921
-0.75760758 2.2738023 -0.26442596
-0.61249405 2.2708321 -0.39290741
-0.70247519 2.271678 -0.38714904
-2.3722525 5.7147117 -0.85900557
-3.7496314 7.9293103 -1.2037911
-3.0750134 7.9036803 -1.6918762
-3.5480831 7.9002466 -1.6507117
-0.80760998 2.3851182 -0.093792662
-0.85101742 2.391247 -0.082300797
-3.1198454 6.3566179 0.26248753
-3.3583643 6.3294158 0.30493173
-3.258389 7.8376637 -0.73927057
-3.5712276 7.8395505 -0.69257534
-3.1602321 7.8971591 -1.0258422
-3.4656234 7.9009614 -1.001478
-3.9440076 7.7881532 -0.662705
-4.336853 7.8972626 -0.63324028
-3.8754303 7.9154921 -0.98180068
-4.1718535 7.8476782 -0.93517131
-0.80833429 2.3866618 0.080271997
-0.72079349 2.2272625 0.0098067503
-0.79318827 2.3098502 0.0153178
-2.7526336 6.6134658 -0.079957649
-2.9693708 6.5386257 -0.038290709
-3.1354017 7.8503151 -0.43182698
-3.4265492 7.8124094 -0.38181782
-3.340035 6.5974741 -0.0079600802
-3.4783065 6.3588839 0.048229828
-3.8532922 7.8877177 -0.35073799
-3.4892583 6.5788646 -0.21847615
-0.79455215 2.3506517 0.25380361
-0.71167666 2.1942377 0.1701571
-0.79993057 2.3281527 0.18431732
-2.5510352 6.1267757 0.4058376
-2.7860534 6.1529202 0.45179504
-2.5365462 6.3443704 0.17537189
-2.766897 6.3355551 0.21583323
-0.64108098 2.2607291 -0.79975361
-0.74604255 2.3058589 -0.80444396
-4.1876016 7.9329944 -1.6476703
-4.6909394 7.9106026 -1.5724244
-0.62719113 2.1820736 -0.50427848
-0.75084835 2.2806613 -0.5220803
-0.60178035 2.3149998 -0.66948992
-0.67371476 2.2253919 -0.63336062
-2.3376532 5.6834011 -1.5321159
-2.7364357 5.8118339 -1.5489564
-3.2608719 5.8825288 -1.5665659
-3.9196894 6.3012881 -1.6552764
-0.64843291 2.229965 -0.2668224
-0.7459985 2.2631142 -0.26205754
-0.60199314 2.2595282 -0.38974461
-0.69060957 2.2590027 -0.38361079
-3.2323079 7.8819232 -1.2377423
-3.7297719 7.9517727 -1.2056155
-3.0480769 7.9078221 -1.6906019
-3.5352774 7.938149 -1.6568195
-0.79338986 2.3668702 -0.091096953
-0.83602965 2.3733773 -0.07972835
-3.0955167 6.3573813 0.26240775
-3.3328352 6.3293381 0.30476537
-3.5490551 7.8561592 -0.69320416
-3.4320383 7.8918595 -0.99839669
-3.9310684 7.8236537 -0.66530561
-4.3177714 7.9213214 -0.63436413
-4.1555557 7.8765092 -0.93748695
-0.79714167 2.3777883 0.080891714
-0.83356565 2.3457928 0.097784176
-0.70382422 2.197144 0.0127562
-0.75549603 2.2258277 0.022744101
-2.7076721 6.5628777 -0.077372298
-2.9446793 6.5388246 -0.03794631
-3.11291 7.8656964 -0.43228319
-3.3963816 7.8103442 -0.38084549
-3.3148377 6.5989857 -0.0076671098
-3.4506311 6.3557491 0.0485829
-3.8215737 7.8853941 -0.34971511
-3.4638929 6.5809755 -0.21790028
-0.77979052 2.3303015 0.2533336
-0.84227389 2.3701363 0.26908186
-0.71126437 2.2174823 0.16979836
-0.75609964 2.2268963 0.18534215
-2.5423508 6.1606712 0.40668669
-2.7584541 6.1434412 0.45106199
-2.504931 6.3225126 0.17551957
-2.7373617 6.3222275 0.21580075
-0.63637 2.2716556 -0.80357879
-0.73821074 2.3064301 -0.80369669
-4.1563258 7.9339333 -1.6449201
-4.6630592 7.9202266 -1.571321
-0.62234658 2.1914439 -0.50652081
-0.73936951 2.2702463 -0.51826632
-0.5985499 2.3333857 -0.67541981
-0.64533883 2.1588647 -0.60869575
-2.3226695 5.6978726 -1.5342362
-2.7123892 5.8081636 -1.5453653
-3.2460861 5.8995481 -1.5685495
-3.9050097 6.3218179 -1.6576446
-0.63828892 2.2206013 -0.26471448
-0.73825383 2.2635794 -0.2617192
-0.60248697 2.2916415 -0.39697382
-0.68292487 2.2593002 -0.38316846
-3.2016299 7.8773894 -1.2351768
-3.6644967 7.8775406 -1.1910204
-3.0225286 7.9155302 -1.6901771
-3.503952 7.9349051 -1.6535619
-0.74963218 2.2559276 -0.076393053
-0.8285687 2.3759921 -0.07972835
-3.0729375 6.3616633 0.26235989
-3.3101346 6.3344707 0.3046822
-3.1732824 7.7695556 -0.72853392
-3.06675 7.8043728 -1.0081701
-3.9029379 7.8288326 -0.66450548
-4.2861953 7.9226089 -0.633053
-3.8127947 7.912869 -0.97775269
-4.1280136 7.8842626 -0.93671507
-0.78723007 2.3726723 0.081304878
-0.82550871 2.3465228 0.097874261
-0.70040029 2.2107813 0.0117152
-0.74718773 2.2244248 0.023066999
-2.6840408 6.5639424 -0.077049121
-2.9216554 6.5425773 -0.037739661
-3.0773468 7.8475552 -0.43000248
-3.3686435 7.8136573 -0.38028985
-3.2887759 6.5986147 -0.0073155798
-3.4277806 6.361289 0.048715308
-3.7916236 7.8865542 -0.348948
-3.4394774 6.5847607 -0.21743962
-0.74447566 2.2451196 0.25153193
-0.8382383 2.3821664 0.26933733
-0.69495833 2.1891024 0.17032017
-0.74054599 2.2047093 0.18558438
-2.5282295 6.181602 0.40711126
-2.7342184 6.1411414 0.45062217
-2.4988043 6.3657765 0.1753442
-2.7182806 6.3326316 0.21580344
-0.6282832 2.270071 -0.80204862
-0.72806591 2.2999251 -0.79996079
-4.1187854 7.9225564 -1.6394197
-4.6241961 7.9111166 -1.5661715
-0.61147809 2.1785543 -0.50203604
-0.73223305 2.2725582 -0.51826632
-0.59121579 2.3352547 -0.67541981
-0.63521081 2.1500344 -0.6048013
-2.299753 5.6926041 -1.530526
-2.7031429 5.835916 -1.5510085
-3.2155473 5.8875651 -1.5621028
-3.9311068 6.4084306 -1.6789594
-0.61942673 2.1788981 -0.25663418
-0.72738391 2.2546725 -0.25968915
-0.58965915 2.2708304 -0.39155194
-0.66482133 2.2260463 -0.3747651
-3.1761327 7.8855762 -1.2348559
-3.6605656 7.9338255 -1.1986221
-2.9914722 7.9085174 -1.6863548
-3.4782138 7.9440832 -1.6531549
-0.74793601 2.2753024 -0.078598663
-0.80975294 2.3467803 -0.07575269
-3.0443621 6.3532181 0.26220036
-3.2865112 6.3377509 0.3045713
-3.1710582 7.8348222 -0.73524427
-3.4947453 7.8674126 -0.69194639
-3.0785427 7.9081297 -1.0229453
-3.3510315 7.8405261 -0.98719221
-3.8721869 7.8285508 -0.66310519
-4.2347684 7.8869896 -0.62780827
-0.73090953 2.2209055 0.089671157
-0.82219416 2.3603835 0.097333729
-0.69000518 2.2015233 0.0127562
-0.73304915 2.2060306 0.02484284
-2.6634073 6.5723414 -0.077049121
-2.8953772 6.5389504 -0.037257519
-3.0519631 7.8553233 -0.42985049
-3.3425016 7.8205366 -0.38001209
-3.260112 6.5927572 -0.0067882398
-3.4049325 6.3667464 0.048847709
-3.7582917 7.8803854 -0.34766942
-3.4187751 6.5955329 -0.21743962
-0.725972 2.2112203 0.25078771
-0.82533389 2.3697381 0.26892856
-0.68692315 2.1874459 0.17038541
-0.72970438 2.1956806 0.18569618
-2.5125165 6.1987901 0.4074145
-2.7140987 6.1478753 0.45054889
-2.4551055 6.3119926 0.17564881
-2.6928432 6.328279 0.21578452
-0.63190389 2.3131521 -0.81964439
-0.7168237 2.2898507 -0.79473048
-4.0831485 7.9145112 -1.6347051
-4.5814734 7.8950491 -1.5595508
-0.60069764 2.1656179 -0.4975512
-0.72267312 2.2675393 -0.51608694
-0.58081162 2.3242426 -0.67080772
-0.63451797 2.1719253 -0.6119411
-2.2861135 5.7105608 -1.5337062
-2.6774702 5.828599 -1.5463912
-3.1961191 5.8959308 -1.5616069
-3.9526343 6.4886446 -1.6983794
-0.61155754 2.1770298 -0.25593156
-0.72091728 2.2588174 -0.26002747
-0.59085286 2.3067369 -0.3996847
-0.64750761 2.1945655 -0.36680388
-3.1390002 7.8643084 -1.2294042
-3.6372795 7.9488754 -1.1992302
-2.9652534 7.9142108 -1.6855054
-3.4343984 7.9119186 -1.6433822
-0.72357601 2.2227099 -0.071491793
-0.76995695 2.2575431 -0.064293429
-3.0226853 6.3591313 0.26216847
-3.2601354 6.3356194 0.30437723
-3.1420255 7.8336635 -0.73390222
-3.4417613 7.8147287 -0.68460959
-3.0416751 7.8863363 -1.0180202
-3.3466153 7.8983598 -0.99447519
-3.8397324 7.8245735 -0.66130471
-4.2288013 7.9353442 -0.63155442
-3.7739727 7.9599786 -0.98126101
-4.1003342 7.9522867 -0.94288975
-0.72034556 2.211755 0.090290867
-0.79464817 2.3064961 0.10003636
-0.68479121 2.2094088 0.0122357
-0.7325536 2.2271891 0.02322844
-2.6442237 6.5843902 -0.077210709
-2.8699601 6.5370502 -0.036844239
-3.0258498 7.8611441 -0.42954639
-3.3092937 7.8108163 -0.37848413
-3.2402601 6.6047635 -0.00684682
-3.376421 6.3615456 0.049244929
-3.7292769 7.8831186 -0.3470301
-3.387924 6.5867434 -0.2161727
-0.71305722 2.1944041 0.25039607
-0.81385827 2.3610191 0.26862198
-0.67947674 2.1876767 0.17041799
-0.72344941 2.1998549 0.18567754
-2.4649916 6.1360531 0.40510976
-2.6931553 6.1527147 0.45040226
-2.4495044 6.3570533 0.17546418
-2.6760874 6.3440657 0.21579532
-0.63156396 2.3419638 -0.83111995
-0.70962673 2.2920911 -0.79473048
-4.0440488 7.8993278 -1.6284188
-4.5625658 7.9196053 -1.5617577
-0.60652435 2.215785 -0.51212686
-0.71674347 2.2734561 -0.51717663
-0.5713467 2.3168645 -0.66751325
-0.62387258 2.1612282 -0.60739756
-2.2688663 5.7195101 -1.5342362
-2.6656151 5.851028 -1.5504954
-3.1948988 5.9384284 -1.5710292
-3.9393103 6.5126433 -1.701695
-0.60370624 2.1751339 -0.25522894
-0.71443188 2.2629442 -0.26036584
-0.57675087 2.2801721 -0.39290741
-0.6434471 2.2059195 -0.3690154
-3.1171613 7.8814821 -1.2306871
-3.6098244 7.9548693 -1.1983179
-2.9268906 7.8868003 -1.6770111
-3.4095271 7.922668 -1.6433822
-0.71600163 2.2230766 -0.071246728
-0.75433564 2.2355769 -0.061253201
-2.9942284 6.3504748 0.26200894
-3.2365496 6.3387194 0.30426633
-3.0977316 7.7935681 -0.72786283
-3.446847 7.8928556 -0.69236571
-3.0231879 7.9125104 -1.0206276
-3.3202388 7.905189 -0.9939149
-3.8004131 7.806139 -0.65790397
-4.1870008 7.9169564 -0.62818295
-3.7078803 7.8838029 -0.96803761
-4.033536 7.8840299 -0.93105489
-0.71516675 2.2197306 0.089980997
-0.74417299 2.1865175 0.10589207
-0.67222184 2.1924355 0.01397066
-0.7185356 2.208704 0.025004299
-2.611078 6.5610552 -0.07583724
-2.8461895 6.5387154 -0.036568731
-2.9997268 7.8668814 -0.42924228
-3.2824025 7.8156638 -0.37806743
-3.2151504 6.6059089 -0.0065538702
-3.3517261 6.3632946 0.049465582
-3.6994362 7.8839407 -0.34626293
-3.3653851 6.5938048 -0.21594238
-0.69493991 2.1603351 0.24965189
-0.7931304 2.325856 0.26760006
-0.67655784 2.2032275 0.17018972
-0.71397358 2.1945379 0.18575208
-2.4449685 6.1419072 0.40504912
-2.6681917 6.148334 0.44988912
-2.4153972 6.3272948 0.17564881
-2.6421292 6.3192811 0.2157466
-0.62785363 2.3582618 -0.8372401
-0.70579559 2.3049171 -0.79921365
-4.0271578 7.9277534 -1.6319548
-4.5288334 7.9185672 -1.5584472
-0.60964048 2.2567153 -0.52389944
-0.70959705 2.2756968 -0.51717663
-0.56790173 2.3352041 -0.6734432
-0.61653924 2.1613646 -0.60674858
-2.2466981 5.7158232 -1.531056
-2.6440065 5.8523397 -1.5484433
-3.1997817 5.9929657 -1.5839227
-3.8805966 6.4618187 -1.6836959
-0.59736794 2.1789246 -0.25558019
-0.70488596 2.2576771 -0.25901243
-0.58491451 2.3464165 -0.40826944
-0.63482881 2.2023265 -0.36768854
-3.0902393 7.8857155 -1.2297249
-2.6180096 5.8347158 -0.83830309
-2.1252434 5.7619667 -1.183495
-3.3846183 7.9333415 -1.6433822
-0.70901442 2.2253149 -0.071246728
-0.73496193 2.2022731 -0.056809802
-2.9725835 6.3562207 0.26197702
-3.2120693 6.3399525 0.30412769
-3.0790143 7.8180737 -0.72965235
-2.9885895 7.8960276 -1.0165716
-2.7584052 5.695138 -0.42124957
-4.1295424 7.8684554 -0.62162709
-3.6947494 7.9205894 -0.97181559
-4.0015259 7.882535 -0.92899674
-0.70584899 2.2143276 0.090394162
-0.73070991 2.1699831 0.10679295
-0.66922617 2.2079282 0.0127562
-0.69895476 2.1731374 0.02823313
-2.6020739 6.5990124 -0.077129923
-2.8256347 6.5476246 -0.036568731
-2.9701068 7.8631916 -0.42817798
-3.2477927 7.8020225 -0.37626171
-3.1866167 6.5997458 -0.00602654
-3.3270562 6.3649487 0.049686249
-3.0604649 6.5654888 -0.25241607
-3.3346624 6.584785 -0.21467549
-0.68814993 2.1625075 0.24965189
-0.74691778 2.2169745 0.26458541
-0.66627705 2.1938226 0.17038541
-0.70073462 2.177803 0.18593842
-2.4343765 6.1719065 0.40577692
-2.6408942 6.1383572 0.44915611
-2.3976095 6.3404708 0.17562112
-2.6230376 6.3293953 0.21574931
-0.61954081 2.3566384 -0.83571017
-0.68184954 2.2540329 -0.77679795
-3.9864383 7.9087977 -1.6248828
-4.4873524 7.9037404 -1.5521945
-0.60207403 2.2567589 -0.52333891
-0.69716084 2.2614214 -0.51227301
-0.56350702 2.3498633 -0.67805529
-0.61882859 2.1941414 -0.61778283
-2.2301157 5.7264524 -1.5321159
-2.6200268 5.8482904 -1.544852
-3.2475867 6.1299338 -1.62062
-3.8412614 6.4423327 -1.6746963
-0.59495455 2.1979463 -0.25874209
-0.69538134 2.252373 -0.25765908
-0.56641704 2.300822 -0.39697382
-0.62679613 2.2005703 -0.36680388
-3.0647428 7.8935423 -1.2294042
-3.5459855 7.9467473 -1.1931489
-2.7878034 7.656827 -1.619675
-3.3589115 7.9421334 -1.6429751
-0.6979906 2.2142336 -0.069531277
-0.7331906 2.2196033 -0.058680732
-2.9509287 6.3618941 0.26194513
-3.1830871 6.3321791 0.30385047
-3.0501354 7.8165865 -0.72831023
-3.3734844 7.8595967 -0.68607694
-2.9623883 7.9016681 -1.0159922
-3.2484362 7.8728743 -0.98579162
-3.7324927 7.7903252 -0.65350288
-4.1011009 7.8743382 -0.62087792
-3.6690185 7.9303565 -0.97154582
-0.69425422 2.2012424 0.091220468
-0.72258222 2.1684914 0.10697313
-0.65733206 2.1927857 0.01431768
-0.68961954 2.167752 0.028878899
-2.5842094 6.6146111 -0.077453092
-2.7994986 6.5436258 -0.03608657
-2.9433081 7.8668756 -0.42772189
-3.227097 7.8213978 -0.37695622
-3.1607225 6.5988889 -0.0056749699
-3.2996254 6.3611975 0.05003934
-3.0423152 6.5805159 -0.25279969
-3.3094437 6.5863252 -0.21409962
-0.67788154 2.1531744 0.24941689
-0.73994869 2.21931 0.26458541
-0.65827423 2.1920617 0.17045061
-0.69011945 2.1686018 0.18605021
-2.3962438 6.1310396 0.40419996
-2.6239686 6.1521292 0.44937599
-2.3742049 6.3385944 0.17566727
-2.5985367 6.3265224 0.21573307
-0.61257857 2.3603668 -0.83647513
-0.66429204 2.2225068 -0.76260126
-3.9589536 7.9160128 -1.6237041
-4.4527965 7.900701 -1.5485162
-0.59544897 2.2605011 -0.52389944
-0.69121486 2.2672691 -0.51336265
-0.56109869 2.3737288 -0.68596184
-0.62303102 2.2342191 -0.63141334
-2.2066205 5.7190137 -1.5278759
-2.6016393 5.8564935 -1.544852
-3.2327874 6.1486993 -1.6230996
-3.7323875 6.3058615 -1.6325407
-0.6031341 2.2589469 -0.26963294
-0.69009018 2.2601831 -0.25867411
-0.5653311 2.3291652 -0.40329936
-0.62372708 2.2156289 -0.36989993
-3.0314908 7.8809962 -1.2255559
-3.5153639 7.9452114 -1.1910204
-2.7604477 7.6563454 -1.6175514
-3.3148792 7.9075589 -1.6327952
-0.69046187 2.214514 -0.069286183
-0.72110999 2.2068477 -0.056809802
-2.9259548 6.3602138 0.2618494
-3.1568861 6.3296432 0.3036564
-3.0284088 7.8335528 -0.72920489
-3.3432879 7.8573613 -0.68460959
-2.9382348 7.9127927 -1.0162818
-3.230485 7.8995171 -0.98831266
-2.7098353 5.6853585 -0.41824889
-4.0754251 7.8854165 -0.62069064
-3.9126763 7.8295741 -0.91767639
-0.68446952 2.1938462 0.091736913
-0.71058893 2.1556289 0.10769383
-0.64608538 2.179507 0.01570563
-0.68032616 2.1623297 0.02952465
-2.5498416 6.5872383 -0.075918034
-2.7773545 6.5487132 -0.035948809
-2.9130831 7.861105 -0.42650548
-3.1949024 7.8130527 -0.3755672
-3.138274 6.6051679 -0.0055577899
-3.274097 6.3608842 0.05030413
-3.020803 6.588223 -0.25267184
-3.2797658 6.5788517 -0.21294791
-0.66710687 2.1418817 0.24914272
-0.73685825 2.2329729 0.26489198
-0.65247959 2.1979654 0.17038541
-0.6826815 2.1688583 0.18606883
-2.3719709 6.1254687 0.40377539
-2.6022732 6.154829 0.44915611
-2.3563466 6.351655 0.17563957
-2.579411 6.336504 0.21573578
-0.60867649 2.3766384 -0.8425954
-0.65621579 2.2210362 -0.76110685
-3.9202034 7.9002643 -1.6174181
-4.4269905 7.9129376 -1.5481484
-0.58649498 2.2549076 -0.52165711
-0.678909 2.2529032 -0.50845903
-0.55977398 2.4031327 -0.69584489
-0.61653233 2.2379837 -0.63206255
-2.1886437 5.7259173 -1.5278759
-2.5887337 5.8769989 -1.5484433
-3.2926517 6.3120041 -1.6672355
-3.415437 5.8160319 -1.4904431
-0.59699637 2.2646492 -0.27033556
-0.68357706 2.2642202 -0.25901243
-0.55887747 2.3347285 -0.40420297
-0.62981594 2.2625327 -0.3805148
-2.1839492 5.7111573 -0.84714001
-3.4871891 7.9489837 -1.1898041
-2.7305219 7.6483955 -1.6137291
-3.3036451 7.9504399 -1.6401247
-0.67899215 2.2014463 -0.067325696
-0.71290857 2.2053363 -0.05634208
-2.9001935 6.356617 0.26173773
-3.1334093 6.3323741 0.30354548
-2.9995513 7.8318801 -0.72786283
-3.2998986 7.8239007 -0.6795786
-2.9106503 7.9145484 -1.0151231
-3.2071486 7.9132934 -0.98887283
-3.692745 7.8334517 -0.65570343
-4.0469747 7.8911052 -0.61994135
-3.5897634 7.8882327 -0.96183074
-3.9155333 7.8968339 -0.92565209
-0.67473704 2.1864107 0.092253327
-0.70253015 2.1540663 0.10787401
-0.63869596 2.1796076 0.015879139
-0.67168665 2.1587667 0.03000899
-2.5114164 6.5485044 -0.073898241
-2.7544215 6.5518885 -0.03574219
-2.8870075 7.8664708 -0.42620143
-3.1627889 7.804585 -0.37417817
-3.112431 6.6041274 -0.0052062399
-3.2522638 6.3675857 0.0503924
-2.9992688 6.5958619 -0.25254393
-3.258188 6.587337 -0.21283275
-0.66150695 2.1478026 0.24922106
-0.72214031 2.2125537 0.26427883
-0.64178175 2.1865294 0.17061366
-0.68079388 2.1862137 0.18591978
-2.3626344 6.1590605 0.40462452
-2.5798037 6.1556129 0.44886288
-2.3213632 6.3176689 0.17584266
-2.5594897 6.3445768 0.21573578
-0.59990484 2.3731506 -0.84030032
-0.65085441 2.2284117 -0.7633484
-3.9031105 7.9283991 -1.6209539
-4.3973103 7.9182277 -1.5463092
-0.91815853 2.5491383 -1.0581031
-0.58534378 2.2809808 -0.52894491
-0.65587318 2.2035594 -0.49320316
-0.54859209 2.3882766 -0.68991506
-0.61156625 2.2471888 -0.63465881
-2.1713183 5.7345724 -1.5284059
-2.5741603 5.8939457 -1.5510085
-0.92443883 2.5671787 -0.74528885
-3.2896082 6.355073 -1.6766578
-3.4010875 5.8334341 -1.4923378
-0.58987814 2.2665138 -0.27033556
-0.66360062 2.2249415 -0.25156885
-0.57246441 2.4296181 -0.4263424
-0.62808365 2.2832484 -0.38493764
-2.9749982 7.8813977 -1.222349
-3.4582276 7.9508491 -1.1882837
-3.2681334 7.9354639 -1.6344241
-0.66928518 2.1940434 -0.066100366
-0.70284617 2.1981401 -0.05517279
-2.8793933 6.3638711 0.26172179
-3.1117258 6.3386016 0.30349004
-2.1491413 5.6441464 -0.46369529
-3.2706676 7.8232317 -0.67832088
-3.1755815 7.9068117 -0.98635191
-3.6639316 7.8359876 -0.6547032
-4.0439644 7.9463072 -0.6244368
-3.5730629 7.9175572 -0.9645294
-3.8810184 7.8895454 -0.92282194
-0.66786546 2.1885192 0.092253327
-0.69131279 2.1430027 0.10850462
-0.63770169 2.2027237 0.01397066
-0.66490185 2.160866 0.03000899
-2.5006716 6.5825505 -0.075029328
-2.7283967 6.5476131 -0.035260022
-2.7670555 7.6109338 -0.40476325
-3.1330116 7.8015385 -0.3732059
-3.085789 6.6011739 -0.0047960998
-3.2213202 6.3564076 0.05092201
-2.978534 6.6052508 -0.25254393
-3.237479 6.5975394 -0.21283275
-0.65363574 2.1460309 0.24914272
-0.71582186 2.2167068 0.26432994
-0.635445 2.1904612 0.17058106
-0.66720963 2.1673918 0.18612474
-2.3488967 6.1814241 0.40510976
-2.5589063 6.1600022 0.44871628
-2.3177445 6.3700991 0.17562112
-2.5328012 6.335897 0.21571141
-0.59501612 2.3858089 -0.84489053
-0.64117873 2.2215626 -0.75961256
-3.8739083 7.931798 -1.6189896
-4.3609667 7.9113746 -1.5418954
-0.89825231 2.5176203 -1.0414927
-0.57411838 2.2660129 -0.52389944
-0.64217961 2.1835306 -0.48666501
-0.54227912 2.3955262 -0.69189173
-0.60603815 2.2545626 -0.6366061
-2.1519539 5.7377477 -1.5273459
-2.5579584 5.9073148 -1.5525475
-0.9151293 2.5664833 -0.74402517
-3.3083045 6.441349 -1.6984777
-3.4023433 5.8776474 -1.5018109
-0.58697367 2.2855661 -0.2734974
-0.64561492 2.1912127 -0.24514034
-0.56609243 2.4371109 -0.42769793
-0.62143999 2.2870867 -0.38537991
-2.9495392 7.8888526 -1.2220283
-3.4214118 7.9344816 -1.1837227
-0.86397171 2.4150751 -0.40627071
-3.2416978 7.9420695 -1.6336095
-0.66639286 2.1969979 -0.066345438
-0.70250899 2.2086713 -0.05634208
-2.8669491 6.3629065 0.26167393
-3.0938001 6.327342 0.30324051
-2.9493833 7.8105597 -0.72361284
-2.7656891 7.6283035 -0.96848011
-3.1446395 7.8658767 -0.97934908
-3.6457765 7.8290877 -0.65330285
-4.0061235 7.9029942 -0.61919212
-3.5525534 7.9050603 -0.96183074
-0.66442704 2.1895659 0.092253327
-0.69300461 2.1592484 0.10778392
-0.63212371 2.1960392 0.01466466
-0.66634822 2.177103 0.02871744
-2.496628 6.6033182 -0.075756483
-2.7134731 6.5408306 -0.034846749
-2.7503903 7.6021285 -0.40369895
-3.1117973 7.7842455 -0.37153906
-3.0703928 6.5951204 -0.00444454
-3.2077017 6.3543334 0.05109854
-2.9576118 6.5862141 -0.25088179
-3.2226963 6.5936632 -0.21225688
-0.65082175 2.1489758 0.2491819
-0.69652379 2.1704128 0.26305252
-0.63306803 2.1953118 0.17051584
-0.66987735 2.1874917 0.18593842
-2.3293877 6.1588902 0.40426064
-2.540746 6.1437306 0.44790995
-2.3023469 6.3586674 0.17569496
-2.5198605 6.3324461 0.21570058
-0.59424537 2.3993285 -0.85024571
-0.63875175 2.2261217 -0.76110685
-2.812691 5.7657356 -1.1357408
-4.3342657 7.8924093 -1.5363781
-0.89192873 2.5121465 -1.0381706
-0.57727617 2.2949147 -0.53230846
-0.64604366 2.2084661 -0.49374801
-0.53693771 2.3889885 -0.68925613
-0.60198766 2.2536895 -0.635957
-2.1409392 5.735693 -1.525756
-2.5378611 5.8865175 -1.5453653
-0.89751393 2.5284426 -0.73012471
-3.2990594 6.4482656 -1.6989737
-3.3891983 5.8762674 -1.4999163
-0.57686311 2.2597029 -0.26857895
-0.64274794 2.1941094 -0.24547866
-0.57522428 2.4969876 -0.44170448
-0.61890513 2.2918148 -0.3862645
-2.9357791 7.8897719 -1.2213869
-3.4113009 7.9452887 -1.184635
-0.87100136 2.4478407 -0.4134908
-3.2269917 7.9417167 -1.6323881
-0.66058403 2.2028959 -0.066835538
-0.68877548 2.1901002 -0.0537696
-2.8388536 6.3535924 0.26151443
-3.0712667 6.3316431 0.30315733
-2.9324245 7.8402882 -0.72607338
-3.2352924 7.8422303 -0.67874014
-2.741046 7.6350904 -0.96819043
-3.1228499 7.8830719 -0.98046941
-3.6170158 7.8314581 -0.65230262
-3.9659748 7.8853445 -0.61600792
-3.8237309 7.8667789 -0.91690451
-0.65809667 2.1935618 0.092150047
-0.67807418 2.1367505 0.10895506
-0.61475527 2.1595638 0.01813459
-0.65471125 2.1639757 0.03000899
-2.454356 6.5530343 -0.073251918
-2.6883078 6.5382485 -0.03443348
-2.7338238 7.6314068 -0.4053714
-3.0851035 7.7884259 -0.3711223
-3.0479937 6.6010985 -0.0043273601
-3.1841137 6.3572416 0.051275089
-2.9328773 6.5863423 -0.25024253
-3.1940665 6.5876136 -0.21122029
-0.64020717 2.1375551 0.24890772
-0.68531483 2.1593003 0.26269487
-0.62406301 2.1895728 0.17064628
-0.65758955 2.1724191 0.1861061
-2.3079431 6.1605535 0.40407866
-2.5191352 6.146143 0.44769001
-2.2649961 6.3168535 0.17593496
-2.4962485 6.3310432 0.21568704
-0.58880258 2.4101815 -0.85407084
-0.65121901 2.2939415 -0.78875291
-3.8119209 7.8986759 -1.607596
-4.3141766 7.9146047 -1.5382173
-0.88579118 2.520103 -1.0406622
-0.57315689 2.3097949 -0.53623271
-0.63688046 2.2031152 -0.49156862
-0.52865183 2.3869677 -0.68793851
-0.59892631 2.2701597 -0.64114952
-2.1255515 5.7496371 -1.5278759
-2.5231891 5.9033341 -1.5479302
-0.88711834 2.524065 -0.72759742
-3.3240683 6.5486002 -1.7247609
-3.3192048 5.7977118 -1.4748124
-0.57205898 2.2710767 -0.27033556
-0.63642085 2.198005 -0.24581698
-0.55748576 2.4530814 -0.43086067
-0.61117834 2.2918687 -0.38582224
-2.1149273 5.7181358 -0.84425378
-3.380863 7.9432502 -1.1825064
-0.85510445 2.4265187 -0.4079695
-3.1858113 7.9119039 -1.6234298
-0.65094751 2.1954141 -0.065610237
-0.68861741 2.2130418 -0.05634208
-2.8180768 6.3606472 0.26149845
-3.0487399 6.3358641 0.30307415
-2.899565 7.8270707 -0.72338921
-3.2045736 7.837646 -0.67706323
-2.7131064 7.6324625 -0.96645224
-3.1009877 7.9002085 -0.98158985
-3.5841637 7.8246655 -0.65030223
-3.9465504 7.9084396 -0.61713177
-3.4916768 7.9018149 -0.95805275
-0.6473794 2.1821699 0.092873067
-0.67570138 2.1521647 0.10832444
-0.59762317 2.1230016 0.021604519
-0.6431644 2.1507962 0.031300511
-2.4447672 6.5907316 -0.074544556
-2.6685164 6.5485086 -0.034502361
-2.6992671 7.6098523 -0.40293875
-3.0525398 7.7776747 -0.3695944
-3.0239384 6.6033583 -0.0040929802
-3.1578526 6.354702 0.051584039
-2.9113727 6.5936942 -0.25011468
-3.1689973 6.5886345 -0.21064448
-0.63348907 2.1395557 0.24890772
-0.68721771 2.1880503 0.26341021
-0.59793919 2.1200783 0.1718529
-0.64897591 2.1687465 0.18616201
-2.2961478 6.1884208 0.40474585
-2.4937396 6.139236 0.44710359
-2.2444792 6.322051 0.17594419
-2.4756126 6.3369932 0.21568434
-0.58081436 2.4102187 -0.85330588
-0.64453012 2.2977569 -0.78950012
-2.7839816 5.7992358 -1.1392766
-4.2817698 7.9143085 -1.5352749
-0.87438309 2.5125287 -1.035679
-0.57025921 2.3302805 -0.54183871
-0.63270426 2.2143259 -0.49429291
-0.52383107 2.4015605 -0.6925506
-0.58582687 2.2501261 -0.63336062
-2.1048579 5.7490315 -1.525756
-2.5046315 5.911231 -1.5479302
-0.87009293 2.4998667 -0.7181198
-3.9880273 7.930232 -2.1170249
-4.5334907 7.9572248 -2.0787272
-0.57218063 2.3035173 -0.27595663
-0.63120419 2.2056599 -0.24683201
-1.6596935 7.6625471 -1.6656991
-0.60656208 2.3031807 -0.38803363
-2.7767611 7.6054425 -1.1691142
-3.3597627 7.9629264 -1.1840268
-0.84810263 2.4310446 -0.40839419
-3.166791 7.9364057 -1.6266874
-0.64619416 2.205092 -0.066590503
-0.67681849 2.2000599 -0.05447118
-2.7956893 6.3639665 0.26145059
-3.0236132 6.3346009 0.30290782
-3.1859577 7.8624024 -0.67874014
-3.0689206 7.8914771 -0.97878879
-3.5571125 7.830442 -0.64970201
-3.4628878 7.903657 -0.95670331
-3.7699251 7.8817139 -0.91561812
-0.64430195 2.1976531 0.092150047
-0.665865 2.1447706 0.10877489
-0.59197342 2.12872 0.021257531
-0.62348568 2.1108956 0.034852222
-2.4240513 6.5983787 -0.074544556
-2.6373577 6.530951 -0.03353804
-2.5127821 6.4741344 -0.27139014
-2.9957986 6.5964165 -0.00356565
-3.1423283 6.3735409 0.051363349
-2.8882637 6.5973139 -0.24973111
-3.1430867 6.5877628 -0.20995343
-0.63107884 2.156939 0.24922106
-0.67480838 2.1730762 0.26295036
-0.5917902 2.1238787 0.1718203
-0.63862407 2.1593077 0.18627381
-2.2555504 6.1373506 0.40286565
-2.4721806 6.1414866 0.44688368
-2.4535067 6.3391509 0.21567622
-0.58140785 2.4480755 -0.86860651
-0.64091295 2.3122463 -0.79473048
-3.7513525 7.8994079 -1.6024884
-4.2428603 7.9017797 -1.5297574
-0.85381949 2.477293 -1.0174075
-0.55992442 2.3189633 -0.53791445
-0.6355325 2.2495294 -0.5041002
-0.51628423 2.4031944 -0.6925506
-0.58121222 2.2610898 -0.6366061
-2.0854878 5.7519832 -1.5246958
-2.4747133 5.8923821 -1.540235
-0.84902519 2.4629865 -0.7042194
-3.2690997 6.5415754 -1.7168264
-4.5055881 7.9663615 -2.0773063
-0.56136036 2.2899644 -0.27314609
-0.62371439 2.2057412 -0.2464937
-1.6852303 7.9041619 -1.7217255
-0.60290354 2.3182507 -0.39112961
-2.756182 7.6234221 -1.1707177
-3.312454 7.9206219 -1.1752089
-0.82993388 2.4021845 -0.4011741
-3.138942 7.9390397 -1.6250587
-0.63714033 2.1994607 -0.065610237
-0.66870385 2.1983883 -0.054003458
-2.7677627 6.3543539 0.26129106
-2.9976585 6.33144 0.30271375
-2.7460351 7.5552726 -0.68871868
-0.86854959 2.4391444 -0.15961611
-3.5300579 7.8361301 -0.64910191
-3.4325495 7.9017582 -0.95481431
-3.7400103 7.8827839 -0.91407448
-0.63312137 2.1842699 0.092976347
-0.65851462 2.1449494 0.10886497
-0.58326179 2.12286 0.02195151
-0.61394423 2.1033101 0.035659429
-2.4006031 6.5984406 -0.074221417
-2.6303155 6.5725589 -0.034777861
-0.88349241 2.4880476 0.01138082
-2.4909828 6.4782786 -0.27111232
-2.9709866 6.5966682 -0.0032726999
-3.1090107 6.3564887 0.052025381
-2.8612163 6.5916858 -0.24870826
-3.1163495 6.5849934 -0.20914724
-0.6200332 2.1434939 0.24890772
-0.67284733 2.1904209 0.26335913
-0.5840984 2.1218593 0.17188552
-0.61608773 2.1096535 0.18677691
-2.2470756 6.1745067 0.40383607
-2.4521251 6.1473703 0.44681036
-0.87818086 2.4756284 0.19478412
-2.4328549 6.3449645 0.21567352
-0.59264153 2.5346537 -0.90456301
-0.63364506 2.3142486 -0.79473048
-3.7323277 7.9235916 -1.6052386
-4.2170839 7.9133396 -1.5293896
-0.80667943 2.3607521 -0.96010172
-0.55900103 2.3487959 -0.54632348
-0.6386826 2.2866204 -0.5144524
-0.51318628 2.4270225 -0.7004571
-0.57556206 2.2683902 -0.63855326
-2.0686936 5.7621436 -1.525756
-2.4569378 5.9019094 -1.5407481
-0.81332612 2.3809505 -0.67452306
-3.2536578 6.5622487 -1.7198018
-4.46524 7.9534135 -2.0697279
-0.55769581 2.3070669 -0.27595663
-0.63720107 2.2777064 -0.25901243
-1.6643293 7.9284978 -1.7262436
-0.59460604 2.3163657 -0.39024508
-2.7262816 7.6152978 -1.1678315
-3.2951767 7.9492288 -1.1782495
-0.82115549 2.4010689 -0.40032467
-3.1147029 7.9506836 -1.6254658
-0.6239326 2.1784787 -0.062669471
-0.65942025 2.1928957 -0.053068001
-2.7454295 6.3575001 0.26124322
-2.9743266 6.3335967 0.30260283
-2.7169509 7.548883 -0.68692911
-3.1283417 7.8619623 -0.67643428
-0.86088282 2.4418612 -0.15961611
-2.9851084 7.8219023 -0.9653433
-3.4981687 7.8308067 -0.64730155
-3.7084289 7.8801565 -0.91201609
-0.62361634 2.1766164 0.093492799
-0.65117067 2.1451025 0.10895506
-0.57808733 2.1304686 0.02143101
-0.6073339 2.1052284 0.035659429
-2.37517 6.5927715 -0.073655859
-2.5985007 6.5529594 -0.033744689
-0.85702956 2.4360659 0.015790081
-2.4734881 6.4935188 -0.2716679
-2.9470143 6.5986547 -0.00303832
-3.0899067 6.3680196 0.051981229
-2.8389306 6.5969696 -0.24845253
-3.0947933 6.5929461 -0.20903209
-0.61224216 2.1415732 0.24882938
-0.65571642 2.160116 0.26249048
-0.58194655 2.1411057 0.171592
-0.60945731 2.1115782 0.18677691
-2.2216353 6.1645851 0.40329021
-2.4283495 6.143908 0.44637054
-0.8459276 2.4064231 0.19513489
-2.4057372 6.3339062 0.21564645
-0.59102911 2.5653784 -0.91680354
-0.63392687 2.3430102 -0.8059383
-3.7016439 7.9228234 -1.6024884
-4.1829629 7.9091973 -1.5257115
-0.90132922 2.4855545 -0.87457907
-0.79643476 2.3546267 -0.95594895
-0.56291842 2.4011292 -0.56145966
-0.63149625 2.2886152 -0.5144524
-0.49788505 2.3897169 -0.68662071
-0.56795347 2.2683568 -0.63790417
-2.38552 5.782939 -1.5043232
-0.80112952 2.3690636 -0.66946846
-3.2321777 6.5706949 -1.7193059
-3.2052076 5.7660937 -1.4544451
-0.54957443 2.3049674 -0.27525401
-0.63058883 2.2815912 -0.25935078
-1.6394143 7.9336867 -1.7262436
-0.5898242 2.3276494 -0.39245647
-3.2671618 7.9522357 -1.1770333
-0.77472132 2.2847545 -0.37314311
-0.6020472 2.1248641 -0.055562571
-0.64959025 2.1854699 -0.051898729
-2.7246644 6.3642516 0.26122725
-2.9493089 6.3320513 0.30243647
-2.6971903 7.5686269 -0.68827122
-3.0926001 7.8440289 -0.67328995
-0.85194099 2.4408035 -0.15903667
-2.9817021 7.8867459 -0.97374672
-3.4639466 7.8198938 -0.64490098
-3.3704746 7.8939691 -0.95049644
-0.60581416 2.1380787 0.095661826
-0.64800793 2.1585784 0.10841453
-0.57484305 2.1457877 0.02021654
-0.60185593 2.1109464 0.03533655
-2.337837 6.5530829 -0.071636073
-2.5660973 6.5313673 -0.032642622
-0.84172976 2.416069 0.017614599
-2.4495203 6.4919372 -0.27097344
-2.9198475 6.5932336 -0.00256957
-3.0550315 6.3471203 0.052731529
-2.8119802 6.5911465 -0.24742968
-3.0655744 6.5845642 -0.20788032
-0.58935761 2.0836394 0.24761519
-0.65489489 2.181247 0.26300144
-0.56926847 2.1196754 0.17198336
-0.60567743 2.1230657 0.18668371
-2.1936219 6.1470227 0.40250173
-2.4009397 6.1310668 0.44556421
-0.83836389 2.4090688 0.19513489
-2.3844049 6.3376937 0.21564104
-0.57983619 2.5527749 -0.91068321
-0.62457126 2.3378415 -0.80294949
-3.6742795 7.9290671 -1.6013098
-4.1535025 7.9136071 -1.5238724
-0.89596194 2.4954 -0.87752032
-0.78455842 2.3432672 -0.94930494
-0.57971513 2.5135088 -0.59453511
-0.6269353 2.2998426 -0.51717663
-0.47491169 2.3115559 -0.65828902
-0.56129891 2.2719617 -0.63855326
-0.87373531 2.4374452 -0.55476367
-3.2452412 7.9124818 -2.1137948
-0.787265 2.3517067 -0.6625182
-2.8217919 5.7749648 -1.4901959
-4.3433294 7.8522925 -2.03373
-0.54877448 2.3355043 -0.28052378
-0.62179828 2.277873 -0.25833574
-1.6121906 7.9273353 -1.7235329
-0.58596456 2.3426995 -0.39555246
-0.86676186 2.4163101 -0.27085736
-3.2391608 7.9551458 -1.175817
-0.75851345 2.2592857 -0.36677238
-3.0547721 7.9445386 -1.6197652
-0.59741861 2.1344159 -0.056542858
-0.62992489 2.1457171 -0.046753719
-2.6969111 6.354341 0.26106772
-2.926018 6.3340364 0.30232558
-3.0540812 7.8185487 -0.66930711
-0.84238595 2.4378376 -0.15816754
-2.9471061 7.8701425 -0.96982521
-3.4369762 7.825264 -0.64430082
-2.751101 5.7534442 -0.38561875
-3.3548591 7.9264483 -0.95373476
-3.6546502 7.8943157 -0.91072983
-0.59702998 2.1322532 0.096074969
-0.62882203 2.1205208 0.11030637
-0.58270717 2.205544 0.01501165
-0.59071469 2.0975289 0.036628079
-2.3060417 6.5283203 -0.070262603
-2.5477602 6.5449767 -0.032849248
-0.83224171 2.4130263 0.018070729
-2.4319339 6.5070658 -0.27152902
-2.8951323 6.5932083 -0.0022766099
-3.0376794 6.3620915 0.052599121
-2.7943411 6.6073122 -0.24794109
-3.044872 6.5941634 -0.20788032
-0.58074802 2.0777521 0.24745853
-0.64154023 2.1622832 0.26243937
-0.58121341 2.1951299 0.17074412
-0.5995692 2.1268764 0.1866651
-2.380935 6.1367188 0.4454909
-0.83079076 2.411691 0.19513489
-2.3595424 6.3320541 0.21562208
-0.61870033 2.3451583 -0.8051911
-3.6306362 7.8995328 -1.5922734
-4.1231394 7.916173 -1.5216655
-0.88811731 2.4982023 -0.87752032
-0.78217852 2.3613179 -0.9567796
-1.2587153 5.6843114 -1.5413896
-0.61814499 2.296243 -0.51554209
-0.46163228 2.281503 -0.64708817
-0.5550946 2.277379 -0.63985133
-0.85416448 2.4055259 -0.54469329
-3.2159655 7.9119081 -2.1107168
-0.77756125 2.3469386 -0.65999085
-3.8286116 7.9202714 -2.0966928
-4.3618817 7.9441261 -2.0555182
-0.53635162 2.3141432 -0.27630794
-0.61837673 2.2930982 -0.26070419
-0.57908899 2.3464174 -0.39599478
-0.85467291 2.4059527 -0.26861253
-2.3325181 5.799345 -0.81610632
-0.7615422 2.2932999 -0.37399253
-3.0234733 7.9376473 -1.6161005
-0.590204 2.1343627 -0.05629779
-0.62087864 2.1400814 -0.04581828
-2.6753993 6.3590899 0.26103583
-2.9019077 6.3341222 0.30218697
-0.81980705 2.3953817 -0.15121457
-0.88925368 2.4492145 -0.1496522
-3.4068542 7.823235 -0.64290047
-3.3238533 7.9223108 -0.95157588
-3.5931818 7.8265572 -0.89940947
-0.59083861 2.1360495 0.095971689
-0.60520661 2.0670795 0.11291893
-0.57914197 2.2208984 0.01379718
-0.61142719 2.1931608 0.02871744
-0.8263514 2.3121495 0.1103883
-2.5206521 6.5361881 -0.03222933
-0.82278216 2.4099476 0.018526871
-2.8736148 6.6004343 -0.0022180199
-3.0073285 6.349956 0.053128719
-2.7643914 6.5939364 -0.24640684
-3.0199521 6.5946336 -0.20730445
-0.57676291 2.0892351 0.24765436
-0.63766819 2.1738474 0.26269487
-0.57576555 2.2027659 0.17064628
-0.59176648 2.1249094 0.18670237
-0.83489853 2.3380525 0.27980411
-2.3572984 6.1329918 0.44505107
-0.81945384 2.4028924 0.19519028
-0.60986966 2.3417201 -0.80294949
-3.614691 7.9305553 -1.5965952
-4.0946198 7.9221106 -1.5201942
-0.87726367 2.492178 -0.87384367
-0.76707673 2.3394768 -0.94515228
-0.91783804 2.4721558 -0.99896383
-1.2127967 5.5568113 -1.5021476
-0.60989904 2.2944651 -0.5144524
-0.45167908 2.2680938 -0.64181715
-0.55302614 2.2992892 -0.64699125
-0.85840303 2.4428868 -0.55476367
-3.188184 7.9148088 -2.1086648
-0.75759786 2.3095655 -0.64609045
-2.77879 5.778585 -1.4862287
-4.3462515 7.9748244 -2.0602551
-0.53701156 2.3523755 -0.28298295
-0.61328232 2.3026257 -0.26205754
-0.46676737 2.2753782 -0.38613001
-0.57075149 2.344445 -0.39511019
-0.84583867 2.4048884 -0.2679711
-3.1654484 7.9166784 -1.1660868
-0.74725324 2.2733226 -0.36889598
-0.59200364 2.1688604 -0.06046389
-0.61643028 2.1496329 -0.046753719
-2.6561692 6.3693128 0.26105177
-2.8778219 6.3341212 0.30204833
-0.836429 2.3642497 -0.066213638
-0.80058032 2.3622117 -0.14571011
-0.85745519 2.3870106 -0.13984819
-3.3799083 7.828413 -0.64230037
-2.6952307 5.7292557 -0.38131058
-3.2959239 7.9253855 -0.95049644
-3.5967028 7.899097 -0.90815693
-0.57908666 2.1185677 0.097004563
-0.60275877 2.0823576 0.11228831
-0.57406056 2.2304475 0.0131032
-0.61169934 2.2199757 0.0266187
-0.8559413 2.4225128 0.10578316
-2.5065861 6.5608563 -0.032849248
-0.80715853 2.387877 0.02050345
-0.83704072 2.3318951 0.039613262
-2.8520775 6.6075926 -0.0021594299
-2.9839351 6.3521466 0.053305268
-2.7413831 6.5970516 -0.24602328
-2.9875681 6.5786796 -0.20569204
-0.56567007 2.0736189 0.24730186
-0.60884303 2.1031179 0.26075321
-0.5726617 2.2200992 0.17038541
-0.59670401 2.1671176 0.18631107
-0.86763692 2.4579451 0.28356448
-2.3365803 6.1366372 0.44490448
-0.79019499 2.3389063 0.19551335
-0.83915883 2.3437862 0.20984533
-0.60539645 2.3543746 -0.80743265
-3.5881515 7.9382935 -1.5958093
-4.0597854 7.9157252 -1.5161483
-0.86586094 2.4843485 -0.86943173
-0.76135188 2.3470845 -0.94764376
-0.89906335 2.4459913 -0.98511338
-1.2123122 5.6413813 -1.5262533
-0.60523152 2.3056493 -0.51717663
-0.44284004 2.2602162 -0.6385228
-0.56955373 2.3964751 -0.68074322
-0.8414942 2.4181564 -0.54681343
-3.1697996 7.9409242 -2.113282
-0.75940084 2.3409116 -0.65619987
-0.90213776 2.4502103 -0.68511844
-3.7622292 7.9091291 -2.0867746
-3.140861 5.8212748 -1.458708
-0.51645184 2.2924366 -0.27174079
-0.60552263 2.3026402 -0.2617192
-0.44614381 2.2060165 -0.36941245
-0.59764189 2.4824188 -0.42695475
-0.84079903 2.4150171 -0.26925385
-3.1464295 7.9412689 -1.1685194
-0.73017526 2.2439542 -0.36167589
-0.89402139 2.4437082 -0.39086533
-0.58716536 2.1783988 -0.061444178
-0.60911077 2.1496542 -0.04651989
-2.6278212 6.3572636 0.2608763
-2.8521123 6.3303885 0.30185425
-0.83091044 2.3725131 -0.066884667
-0.76754826 2.2856443 -0.13354239
-0.85200047 2.3952689 -0.14068855
-3.3514123 7.8298326 -0.64130014
-3.5652978 7.8959155 -0.90609878
-0.5749172 2.1300483 0.096488133
-0.59678674 2.0861552 0.11219822
-0.56845719 2.2380495 0.0125827
-0.59818023 2.1988769 0.028556
-0.84384215 2.4119396 0.10634871
-2.4781048 6.5481634 -0.032091569
-0.7683844 2.293622 0.028257679
-0.82558405 2.3232756 0.040446699
-2.8266275 6.6054745 -0.00180787
-2.9707756 6.3759637 0.052952189
-2.7183852 6.6000857 -0.2456397
-2.9652343 6.5843973 -0.20546174
-0.56213403 2.087007 0.24753687
-0.60681504 2.1203444 0.26116198
-0.5656848 2.2218874 0.17038541
-0.59864753 2.199759 0.18601294
-0.84069204 2.4038491 0.28174496
-2.3208551 6.1532841 0.44527102
-0.75766236 2.2633398 0.1958918
-0.82560098 2.3295088 0.20982097
-0.60370427 2.3777833 -0.81639904
-3.5472617 7.9136891 -1.5879517
-4.031312 7.9214416 -1.5146769
-0.85216045 2.4694149 -0.86207843
-0.75021148 2.3372979 -0.94183016
-0.89779371 2.465904 -0.99326062
-1.1996415 5.6696019 -1.5335412
-0.59848857 2.3093967 -0.51772153
-0.43809178 2.2746034 -0.64313489
-0.56382692 2.4056013 -0.6833396
-0.83023649 2.4098103 -0.54363334
-3.1405399 7.9400702 -2.1102037
-0.73129576 2.276211 -0.63282186
-0.90113068 2.470839 -0.69129246
-3.7447586 7.9367003 -2.0912375
-4.2627935 7.9404392 -2.0432029
-0.51695025 2.3306558 -0.27841586
-0.60189915 2.3178482 -0.26408765
-0.43992785 2.2112374 -0.37031612
-0.5912503 2.4899633 -0.42828155
-0.82883888 2.4045367 -0.26700902
-3.1280193 7.9676542 -1.1712561
-0.71733892 2.2275684 -0.35742876
-0.88291383 2.4373333 -0.38882941
-0.59258896 2.2139349 -0.065855309
-0.61246204 2.1734741 -0.04932623
-2.6117995 6.3465643 0.26074868
-2.8396888 6.3293958 0.3017711
-0.81639576 2.3417969 -0.063082099
-0.75121558 2.2472913 -0.12745851
-0.85367543 2.4114838 -0.14292942
-3.3391094 7.8350863 -0.64130014
-3.2114966 7.8251858 -0.93349504
-0.5784961 2.15804 0.095042087
-0.59464824 2.09092 0.11201805
-0.56354415 2.2331278 0.0131032
-0.59635222 2.2055688 0.02807167
-0.8349511 2.3981113 0.10699503
-2.4671052 6.55018 -0.0320227
-0.75257808 2.2568543 0.031298552
-0.81645471 2.3095784 0.041557889
-2.8131411 6.6025391 -0.00157352
-2.9480321 6.3534617 0.053614199
-2.7050133 6.5969501 -0.24512829
-2.9540651 6.5872283 -0.20534658
-0.57366782 2.1460185 0.24871188
-0.60576278 2.1289608 0.26136637
-0.56359911 2.2286057 0.17028756
-0.59138286 2.1872256 0.18614337
-0.83563983 2.4013772 0.28162363
-2.3062189 6.1438432 0.44475788
-0.74738336 2.2435799 0.19599336
-0.81851625 2.3214076 0.20980744
-0.59713227 2.367965 -0.81191587
-3.5308573 7.9102859 -1.5859872
-4.0036669 7.8979998 -1.5084242
-0.80664468 2.345432 -0.80986965
-0.7476092 2.3419514 -0.94349134
-0.8888061 2.4536228 -0.98674297
-1.1899625 5.6677179 -1.5324199
-0.59586066 2.3140502 -0.51881117
-0.43218488 2.2622778 -0.6385228
-0.55511791 2.3862669 -0.67619967
-0.79247689 2.3085985 -0.51395237
-3.1152191 7.9126563 -2.1009696
-0.72939324 2.2827978 -0.6347174
-0.88058275 2.4277091 -0.6758576
