# .PCD v0.7 - Point Cloud Data file format
VERSION 0.7
FIELDS x y z
SIZE 4 4 4
TYPE F F F
COUNT 1 1 1
WIDTH 1534
HEIGHT 1
VIEWPOINT 0 0 0 1 0 0 0
POINTS 1534
DATA ascii
20.844652 22.224083 0.80202723
18.565578 21.35218 0.92791235
8.2907581 8.6330147 0.01257783
7.5872388 8.4698973 0.10130666
17.538958 21.770803 1.0526841
7.3435097 9.8055878 0.65338016
7.5701799 9.1538477 0.15208274
7.1423216 9.2712488 0.2223165
5.35993 5.263566 -1.1928942
4.8231225 5.2395887 -1.0754381
5.528913 5.189785 -1.6060582
6.4266505 8.8040438 -1.5312707
8.2288885 8.7532854 -1.2661804
7.7593269 8.7950258 -1.1643822
15.439083 21.658825 0.4181692
6.7277746 10.190102 0.37488136
7.4917412 9.2693214 -1.1253445
6.3877983 8.4935074 -0.90471411
7.0628009 8.5070496 -1.3992757
6.7426805 8.7086849 -1.3390149
5.843008 8.4580488 -0.81854093
5.5522137 8.6565247 -0.75311756
6.0389538 8.4945869 -1.2009298
5.618804 8.5041466 -1.1044614
8.057538 8.5732212 -0.39784557
7.4288745 8.4675932 -0.29788139
9.0863762 9.389657 -0.92412573
7.7741332 8.6230927 -0.72715145
6.7985482 8.4127989 -0.22764541
6.322947 8.3968763 -0.15304349
7.177907 8.6329861 -0.64332008
6.5288658 8.4313364 -0.53030491
6.0959792 8.8099003 -0.10522354
5.6386929 8.7735033 -0.02198774
6.0818 8.5385761 -0.45992768
5.715188 8.6434164 -0.38662708
20.737162 21.971043 0.79697466
18.602324 21.259108 0.92673719
8.4376211 8.7303286 0.0097732404
7.6485405 8.4847174 0.1008222
17.689203 21.816444 1.0566264
7.3910775 9.8048458 0.65440637
7.2410078 8.7019186 0.15465811
6.8231411 8.7975368 0.22154501
5.3552327 5.2261457 -1.1876246
4.9102764 5.3013101 -1.0933704
6.3294449 8.6130638 -1.4987357
8.1633749 8.6295414 -1.2495161
7.7961249 8.7810249 -1.1660192
7.3317332 10.240792 0.3064689
14.908222 22.483721 0.57960117
6.9411135 8.5362444 -1.0222275
6.5688105 8.6783495 -0.93175554
7.0602245 8.4499626 -1.3926123
6.8549538 8.7970009 -1.3586229
5.8627071 8.4298677 -0.81734061
5.5707726 8.6256371 -0.7516191
6.1107445 8.5383129 -1.2114545
5.7100568 8.5840492 -1.1196408
8.1105671 8.5753803 -0.39980799
7.4989624 8.493741 -0.3008543
8.4723101 8.7028608 -0.84397024
7.8092017 8.6075048 -0.72812009
6.9286447 8.5182791 -0.23427038
6.4130754 8.4615574 -0.1566941
7.0882096 8.4714899 -0.62948406
6.4868507 8.3224936 -0.52252638
6.0811973 8.7301149 -0.10305563
5.6012959 8.6548643 -0.019339681
6.17278 8.6084805 -0.46695977
5.7048326 8.5688162 -0.38271123
20.651707 21.743542 0.79258794
8.0118017 9.0757341 0.51418889
8.3616066 8.5979185 0.0121865
7.7461948 8.5393162 0.099834643
18.791431 23.025206 1.1061785
7.4772596 9.8549385 0.65777838
7.4369826 8.8796072 0.15344888
6.8912339 8.8281794 0.22163434
5.3801332 5.2174921 -1.1897324
4.9282455 5.2873063 -1.0937089
6.3564706 8.5931387 -1.4987357
8.2343388 8.6497641 -1.2573582
7.8302722 8.7639122 -1.1671885
7.2958527 10.123746 0.30554366
14.977669 22.435112 0.57957345
7.0347996 8.5957556 -1.0340827
6.5948396 8.6560879 -0.93154597
7.1595325 8.5139027 -1.4091257
6.8703699 8.7598133 -1.3558218
5.8891602 8.4114075 -0.81734061
5.6227121 8.6465511 -0.75592721
6.1665959 8.5591974 -1.2182012
5.8095632 8.6750154 -1.1366215
8.2244186 8.6408167 -0.40631521
7.5944352 8.547967 -0.30553886
8.5638866 8.7415371 -0.85195118
7.9153099 8.6699667 -0.73764515
6.9122062 8.4439983 -0.23152344
6.3924966 8.3792744 -0.15400781
7.3260355 8.6988535 -0.65441918
6.5522466 8.3524036 -0.52697128
6.1512094 8.7714272 -0.10522354
5.7611237 8.8419361 -0.02472404
6.1411867 8.508275 -0.460567
5.6852059 8.4810753 -0.37787402
20.894152 21.860542 0.79752296
8.3254948 8.507431 0.01365402
7.8106422 8.5563822 0.099312916
18.096474 22.033682 1.0695451
17.605783 23.111223 1.2696443
7.7233191 9.1614628 0.15160275
6.8634968 8.735589 0.22151253
5.3680472 5.1733384 -1.182706
4.9502034 5.2775683 -1.0950623
6.4152045 8.6160135 -1.5069455
8.2256918 8.5866604 -1.2509865
7.8524694 8.7333479 -1.1662531
7.3076034 10.073296 0.30527246
13.668966 20.331871 0.54525012
6.9363236 8.4220314 -1.0119381
6.5399561 8.5278025 -0.91729164
7.2080393 8.5169945 -1.4140507
6.8085527 8.624507 -1.3353734
5.9891939 8.4967756 -0.83014345
5.6292057 8.5971384 -0.75236839
6.2961884 8.6806993 -1.2419491
5.8389993 8.6600151 -1.137136
8.2792206 8.6437206 -0.40838087
7.6398497 8.5449591 -0.3068001
8.5800934 8.7032595 -0.85056311
8.0070915 8.715662 -0.74539429
6.9208612 8.4006882 -0.23039232
6.5085855 8.4766865 -0.15910487
7.3869443 8.71527 -0.6583724
6.6622686 8.4384642 -0.53641665
6.0503178 8.5710869 -0.098719783
5.9068856 9.0046425 -0.029490549
6.2891393 8.6549501 -0.47373617
5.6650877 8.3935404 -0.3730368
21.473293 22.324705 0.8119365
18.836418 21.121675 0.92806566
8.4421835 8.5722246 0.01156686
8.156003 8.8800993 0.094915487
17.923355 21.684175 1.0580213
17.688028 23.068493 1.2702307
7.8208165 9.2178316 0.15111351
6.90204 8.7281256 0.22153689
5.3971152 5.1686587 -1.1858679
4.9708042 5.266304 -1.0960772
6.4398804 8.5926476 -1.5063374
8.2212486 8.5551634 -1.2478006
7.8595424 8.7136145 -1.1650839
7.2962694 10.024671 0.30490556
13.700884 20.310377 0.54525012
6.9673166 8.4325333 -1.0150697
6.5847783 8.5585814 -0.92274177
7.3434157 8.6486902 -1.441573
6.8122845 8.6013603 -1.3331326
6.0659537 8.5765591 -0.84114611
5.6143837 8.5449467 -0.74749833
6.2957778 8.6516066 -1.2387108
5.8614521 8.6639977 -1.1391943
8.384326 8.725563 -0.41519785
7.5175366 8.380928 -0.29761115
8.2946901 8.3886528 -0.81360835
8.0342484 8.7177629 -0.74700874
6.8612728 8.3021812 -0.22578719
6.6337571 8.6124058 -0.16544177
7.2982993 8.583869 -0.64636087
6.7199745 8.4843988 -0.54141712
6.0962386 8.607173 -0.10036036
5.6625266 8.6005688 -0.01907487
6.0939126 8.3601027 -0.45110554
5.8031864 8.570118 -0.38593602
8.590024 8.9250555 0.44783807
20.688663 23.129181 0.9978627
8.576767 8.681035 0.0087622702
8.3632708 9.0780191 0.092250958
17.984217 21.68829 1.0592951
16.297667 21.182768 1.1843188
7.6884322 9.0337524 0.15215659
7.4945168 9.4503326 0.22280106
5.4066553 5.16153 -1.1862192
4.9966216 5.2771602 -1.1004757
6.5291543 8.6838207 -1.5257975
8.2190409 8.4993954 -1.2426543
7.9587889 8.7684603 -1.1777123
6.8002439 9.284893 0.29780662
13.797153 20.315247 0.54605418
7.2078629 8.6668253 -1.0526481
6.5788531 8.4953146 -0.91708183
7.5548763 8.8402948 -1.4830012
7.1112528 8.9227839 -1.3950378
6.0963402 8.5623159 -0.84174621
5.6149335 8.4873438 -0.74300289
6.3616982 8.6844492 -1.2476163
5.8752918 8.6258373 -1.136107
8.2892456 8.5730896 -0.40610856
7.6145992 8.4360409 -0.30238584
8.4590349 8.5006657 -0.83061105
8.0183191 8.6456127 -0.74184263
6.9091058 8.3066521 -0.22716065
6.5801997 8.487071 -0.16089575
7.3499284 8.5896311 -0.64924979
6.7651935 8.4866953 -0.54350066
6.109273 8.5684814 -0.099657267
5.7071252 8.6094475 -0.01978101
6.2504716 8.517602 -0.46516979
5.854732 8.5882034 -0.38846982
8.6319599 8.9123611 0.44822973
19.419502 21.571016 0.94656241
8.4826393 9.150157 0.091002539
18.236908 21.852531 1.0680288
16.373905 21.144114 1.1849052
7.7219915 9.0156193 0.15211967
7.5938468 9.5144291 0.22295265
5.447207 5.1674724 -1.1921917
6.5492678 8.6537943 -1.5239732
8.2262774 8.45366 -1.2392235
8.4125919 9.2121887 -1.2523144
6.8400917 9.2779484 0.29795021
14.637403 21.410034 0.56515652
7.0623708 8.4387903 -1.0224512
6.705462 8.6034842 -0.9342711
7.3393908 8.534997 -1.4285362
6.8007059 8.4763699 -1.3182865
6.0615554 8.457551 -0.83114374
5.7064452 8.567605 -0.75405413
6.3806872 8.6532755 -1.2457272
5.8911834 8.5909529 -1.133534
8.3538284 8.585577 -0.40889734
7.7362022 8.5172997 -0.30878207
8.0060883 8.5780306 -0.7371608
7.1101165 8.4928885 -0.23814838
6.547986 8.3905773 -0.15758951
7.4303703 8.6283331 -0.65548348
6.7731481 8.4420118 -0.54141712
6.2040014 8.6432781 -0.10305563
5.7087097 8.5531607 -0.018765939
6.2058101 8.4017763 -0.45749837
5.8445325 8.5153494 -0.38466918
19.905575 21.97257 0.96250427
5.1940031 5.2061067 0.087845422
8.1519861 8.7366514 0.095921688
18.172899 21.637585 1.0617818
18.015907 23.118177 1.2790271
7.5447474 8.753932 0.15356889
7.5899701 9.4483547 0.22287956
5.4634132 5.1503344 -1.1921917
6.4283543 8.4378338 -1.486269
8.263936 8.4390898 -1.2411839
7.9641156 8.6640596 -1.1690594
7.2218699 9.7293892 0.30265623
14.830281 21.546911 0.56823403
7.1158156 8.4484148 -1.0271485
6.6773891 8.511817 -0.92483795
7.5206857 8.6896048 -1.4630114
6.8682418 8.5058994 -1.3275303
6.1044579 8.4610138 -0.83394432
5.7366548 8.5546017 -0.75461608
6.3971829 8.6188869 -1.2432984
5.9989886 8.6901178 -1.1520581
8.4311819 8.6105518 -0.41261572
7.8920135 8.6348152 -0.31743047
5.2680688 5.2418098 -0.43347716
8.0153036 8.5339022 -0.73506206
7.2413554 8.5940447 -0.24469252
6.7737141 8.6250944 -0.16874798
7.4338775 8.5778704 -0.6527468
6.8596292 8.4953413 -0.5480845
6.178266 8.550951 -0.10041896
5.7733335 8.5917025 -0.02026649
6.3767567 8.5756817 -0.47296906
5.983223 8.6598473 -0.3960712
8.5376549 8.7055073 0.44403881
8.2037506 8.975872 0.51556849
5.214602 5.1939788 0.087747581
8.3501234 8.8936062 0.093592539
18.286015 21.633768 1.0639045
18.136513 23.122826 1.2818859
7.8888531 9.0935822 0.15134428
7.1029377 8.7825756 0.22176428
5.5473232 5.1961722 -1.2087035
5.6258521 5.58708 -1.6458929
6.5519576 8.5448904 -1.5108984
8.4314327 8.5555735 -1.2659354
8.1729441 8.8362446 -1.2006309
7.3916535 9.8922033 0.30450675
6.4837456 9.331336 0.36312604
7.1345878 8.4169407 -1.0258064
6.6770616 8.4563913 -0.92022634
7.7812009 8.9325199 -1.514869
6.8837209 8.4704227 -1.3250093
6.0782042 8.3694715 -0.82494223
5.8145614 8.6125813 -0.76323223
6.407568 8.5765629 -1.2395203
5.9608412 8.5766048 -1.137136
8.3710842 8.4960022 -0.40621185
7.912354 8.6026125 -0.31698003
5.2475452 5.1889396 -0.42896628
8.0570993 8.5246496 -0.73683792
7.7672701 9.1568995 -0.27579743
6.6895556 8.4623795 -0.16254883
7.4910126 8.5889721 -0.6562438
6.8448801 8.4225559 -0.54350066
6.2983065 8.6589928 -0.10504776
6.2635403 9.2619762 -0.038582191
6.3748679 8.5173283 -0.46990055
6.064929 8.7198229 -0.40159941
8.6888313 8.8036261 0.44748557
19.542276 21.300034 0.94354773
5.2152038 5.1621523 0.088106319
8.4232435 8.9153986 0.09297765
18.536715 21.790747 1.0724564
17.03264 21.57283 1.2121742
7.9543009 9.1108599 0.15108582
6.9517169 8.5395479 0.22137988
5.5766306 5.1907482 -1.2118654
5.3887606 5.3164506 -1.5645124
6.6281304 8.5885458 -1.523365
8.3546133 8.4249754 -1.2478006
8.0750971 8.6750393 -1.1788816
6.7005982 8.9130621 0.29495111
6.5118842 9.3092813 0.36309832
7.2127309 8.4548464 -1.0347536
6.7393703 8.4806185 -0.92630529
7.8327632 8.9347658 -1.5200838
7.0053024 8.5654812 -1.3462979
6.1280341 8.3824062 -0.82894325
5.7914023 8.5200405 -0.75480336
6.4524016 8.5801058 -1.2435683
6.0206108 8.6050472 -1.1445971
8.534441 8.606945 -0.41623074
7.8838277 8.5174732 -0.31328639
5.2638197 5.1724296 -0.42896628
8.2716179 8.6976061 -0.75895542
7.9065595 9.261405 -0.28266478
6.8836002 8.6528883 -0.17184754
7.5364223 8.586339 -0.6583724
7.0350361 8.6021748 -0.56155807
6.218833 8.4942551 -0.09977445
6.1120496 8.9757338 -0.031476568
6.4256911 8.5290852 -0.47245765
6.0158286 8.5909557 -0.39388293
5.1537752 5.2042079 0.34866661
19.592833 21.220898 0.94293463
5.2328253 5.1471415 0.088073701
8.4745827 8.9135847 0.092660882
18.249784 21.318155 1.0558985
17.194714 21.638227 1.2177452
7.6798487 8.7424183 0.15319966
6.9962025 8.5393696 0.22141778
5.394331 5.2885342 -1.5609741
6.7469525 8.6865473 -1.5464741
8.4147615 8.4323359 -1.2536823
8.2635212 8.8224907 -1.2067113
7.5662341 9.9936237 0.30599034
6.5089612 9.2429228 0.36232203
7.2756023 8.4742842 -1.0410168
6.73873 8.425168 -0.92169368
7.812232 8.8553152 -1.5093645
7.0259013 8.5357733 -1.3448974
6.1496029 8.3567152 -0.82814312
5.8752789 8.5857553 -0.76435602
6.4889231 8.5724115 -1.2457272
6.0373693 8.5714712 -1.1422815
8.002924 8.592288 -0.31941244
5.3029289 5.1780605 -0.43174225
8.0898714 8.4522142 -0.73441631
7.3115802 8.5133171 -0.2440462
6.8310299 8.5311737 -0.16743927
7.5355625 8.5312977 -0.6551795
7.0291519 8.5399036 -0.55794662
6.730998 9.1300859 -0.12368017
5.9498115 8.6773214 -0.0240179
6.4548717 8.5120316 -0.47271335
6.0829096 8.6292334 -0.39791393
5.146018 5.1639986 0.34800079
19.738256 21.24427 0.94589818
5.2618842 5.1432123 0.0877802
8.3563137 8.7334328 0.094636001
18.358458 21.309143 1.0578394
17.309984 21.643461 1.2205307
7.8055449 8.8289118 0.15251659
7.4188333 8.9997253 0.22226237
5.4039555 5.2647328 -1.5587627
6.7608547 8.6481466 -1.5431293
8.2150793 8.7153759 -1.193615
7.066422 9.2757692 0.29901904
15.995592 22.628548 0.58977616
7.6031551 8.7980757 -1.0926871
6.8310723 8.4862289 -0.93280375
7.1156697 8.5900545 -1.3589031
6.2447615 8.4299259 -0.83974576
5.8707099 8.5212612 -0.7591114
6.6013656 8.6636934 -1.2648875
6.0814185 8.5767727 -1.1461408
7.9699054 8.5028276 -0.31544855
5.3076944 5.1503148 -0.4303543
8.1936512 8.5073309 -0.74345702
7.406426 8.5687647 -0.24824737
6.8190336 8.4613304 -0.16530399
7.6074915 8.5581532 -0.66034889
7.1029077 8.5747356 -0.56308597
6.3007622 8.4934759 -0.10118064
5.9781766 8.6602354 -0.024062039
6.4621468 8.4663715 -0.47066766
6.065083 8.546463 -0.39342219
5.1579542 5.1435847 0.34788328
20.654781 22.092762 0.97773087
5.2708211 5.1197138 0.087943263
8.5345736 8.8644915 0.092604987
18.383369 21.203066 1.0558985
17.566917 21.824244 1.2315996
7.6919818 8.6462708 0.15349504
7.3006129 8.7990313 0.22195105
5.4106936 5.2381978 -1.5556667
6.909862 8.7825022 -1.573536
8.2233248 8.6693096 -1.1903409
7.0589118 9.2059946 0.29854044
15.931121 22.387423 0.58653235
7.5719147 8.7067957 -1.0826213
6.8352265 8.4368563 -0.92903042
7.1362967 8.5600376 -1.3575025
6.3034363 8.4532595 -0.84514701
5.8703127 8.4634428 -0.75461608
6.574111 8.5722799 -1.2527436
6.1301498 8.5883532 -1.1510291
5.222147 5.1825452 -0.16989018
8.0704308 8.5563984 -0.3203133
5.3296037 5.1391263 -0.43104827
8.3601437 8.6264362 -0.75976264
7.3885984 8.4942942 -0.24550046
6.8819876 8.4849749 -0.16730152
7.6716609 8.5757446 -0.66460609
6.9731078 8.3635187 -0.5460009
6.4198165 8.596755 -0.10569227
6.0622029 8.723649 -0.026268739
6.452116 8.3986359 -0.46683192
6.1011543 8.5403881 -0.39434361
5.1755118 5.128758 0.34792244
20.583097 21.877657 0.97246802
5.3070893 5.1225023 0.087486692
8.3610353 8.6289415 0.095306791
18.434099 21.127153 1.0551708
17.576326 21.695906 1.2281543
7.6803212 8.5789385 0.15376273
7.2732463 8.7099161 0.22183466
5.4327259 5.226603 -1.5574358
6.9374161 8.7607517 -1.573536
5.6749701 6.2019687 -1.6757371
5.2757268 5.2018018 -0.69763124
8.3695679 8.7686901 -1.2106869
7.4713688 9.6784687 0.30353361
7.2784986 10.136107 0.37859648
7.6504121 8.7411737 -1.0913451
6.8190913 8.3628254 -0.92190325
7.1656952 8.540616 -1.3580627
6.4174547 8.5493803 -0.85975039
5.9195914 8.4776649 -0.75836223
6.6082997 8.5609779 -1.2543628
6.2470651 8.6949062 -1.1710968
5.2455401 5.1730995 -0.17040662
8.0931578 8.5266438 -0.32004306
5.3500547 5.1264768 -0.43156874
8.5719051 8.7903376 -0.78123432
7.5181866 8.5880842 -0.25180221
6.8405576 8.3795338 -0.16358204
7.566144 8.4051676 -0.64955378
6.9993505 8.341568 -0.5460009
6.414258 8.533474 -0.1041103
6.0427527 8.6372719 -0.024459239
6.4833708 8.3846264 -0.46734339
6.1163392 8.5049372 -0.39319187
5.1873112 5.1082778 0.34780496
20.123005 21.253452 0.9527961
5.3144689 5.0975275 0.087682366
8.5106964 8.7289 0.093667082
18.625826 21.21172 1.0609326
17.689819 21.696381 1.2307932
7.6938176 8.539937 0.15385504
7.3916855 8.7959404 0.22202685
5.4477158 5.2081561 -1.5569935
6.9771929 8.7544003 -1.5765767
4.8908033 5.3167758 -1.4187858
5.2948861 5.1879716 -0.69812131
8.1691771 8.5040674 -1.1718658
7.4586706 9.5997677 0.3029753
7.2156839 9.9817181 0.37635076
7.6923189 8.7334709 -1.0938053
6.9610701 8.4830933 -0.94118869
7.2014074 8.5286751 -1.3600235
6.5345411 8.6480389 -0.87475371
5.927938 8.4329166 -0.75536525
6.7144337 8.6417046 -1.271904
6.2210608 8.601182 -1.1592619
5.2574697 5.1524172 -0.17009676
8.1405544 8.5228949 -0.32139435
5.3704743 5.1137514 -0.43208921
8.3138666 8.4710789 -0.74813884
7.5345325 8.552454 -0.25115591
6.8516645 8.3394337 -0.16275547
7.5790892 8.3666105 -0.64803338
7.2642727 8.6036406 -0.57183689
6.4664445 8.5466995 -0.10534072
6.0675611 8.6149693 -0.02437097
6.6289606 8.5167093 -0.47974545
6.2247043 8.5991001 -0.40125394
5.2047668 5.0933504 0.34784412
20.583744 21.604471 0.96740949
9.0993786 8.6479034 0.00305524
8.5492563 8.7135677 0.093517996
18.635386 21.088739 1.0583246
17.906061 21.821615 1.2393698
7.9764762 8.7966661 0.1521012
7.4179921 8.7711458 0.22202414
5.317503 5.2750268 -1.1387086
5.469687 5.1964097 -1.5587627
7.0108252 8.7401638 -1.5780971
4.8994842 5.292809 -1.4162375
5.3025956 5.1630344 -0.69665092
8.1380024 8.4182558 -1.1620436
7.3541369 9.4048557 0.30123645
6.7788782 9.3128281 0.36528859
7.6179523 8.5949688 -1.076582
6.8891788 8.3413296 -0.92483795
7.1731749 8.4409933 -1.3479786
6.4420385 8.4709473 -0.85494924
5.9635692 8.4272795 -0.75686371
6.8309355 8.734314 -1.2916039
6.4086108 8.8032627 -1.1947665
5.2664514 5.128933 -0.16958033
8.163146 8.4929495 -0.32112411
9.1865282 8.6673584 -0.88612992
8.6367474 8.7462587 -0.78236443
7.5852866 8.555604 -0.25261015
7.0238795 8.495368 -0.17067657
7.8800964 8.6427727 -0.67905033
7.3041487 8.5960131 -0.57322586
6.6427155 8.7216072 -0.11254761
6.3757963 8.9945574 -0.035139721
6.6495099 8.4880037 -0.47910619
6.1860604 8.4889746 -0.3948043
5.2322497 5.0880871 0.34815747
21.039974 21.94558 0.98176742
9.1614609 8.6521559 0.00227256
18.797291 21.137564 1.0626915
19.150436 23.191837 1.3071758
7.8027244 8.5518799 0.15347658
7.4558525 8.7600079 0.22204581
5.3284526 5.2527413 -1.1373553
5.484571 5.1778579 -1.5583204
7.0840583 8.7751122 -1.5893475
4.9254484 5.2873683 -1.4192104
5.3302417 5.157351 -0.69861144
8.2431774 8.4739723 -1.1753737
6.8131118 8.660018 0.29389822
6.8269572 9.3173361 0.36573216
7.5971718 8.517705 -1.0685294
7.0624065 8.4974279 -0.94915438
7.2830906 8.5164337 -1.366186
6.5232258 8.5216398 -0.86395133
5.9669919 8.3760071 -0.75311756
6.8386736 8.6879396 -1.2872862
6.4187093 8.7590466 -1.1909075
5.302701 5.1317363 -0.17102633
8.1870165 8.4643822 -0.32094386
9.0928392 8.525589 -0.87172967
7.6054602 8.5242891 -0.25220615
7.05691 8.4809551 -0.17102097
7.7396264 8.4361372 -0.6601969
7.3246546 8.5654249 -0.5725314
6.4211946 8.3776226 -0.10059476
6.1169405 8.5701542 -0.024194431
6.6674676 8.4561195 -0.47821122
6.1962218 8.4469166 -0.39319187
5.2583094 5.0813131 0.34843162
21.0256 21.792963 0.97870171
9.3083992 8.7352962 -0.00040157
5.1648316 5.1835771 0.13907605
18.899639 21.118587 1.0643291
10.947723 13.156018 0.8318013
7.7454863 8.4361753 0.15404889
7.4872308 8.7411041 0.22205393
5.3322997 5.2235155 -1.1343101
5.527751 5.1860495 -1.5667238
4.943378 5.2732892 -1.4196353
5.3440695 5.1544638 -0.69959176
8.2952318 8.5009041 -1.1819218
7.5549631 9.5675297 0.3032465
7.2962174 9.9279661 0.37640622
7.6171846 8.5131521 -1.0696478
7.0744758 8.4847946 -0.94894469
7.4109068 8.6390152 -1.3911161
6.5220113 8.4924793 -0.86155069
6.1462851 8.6003189 -0.78008991
6.8178205 8.6337223 -1.2797301
6.4371438 8.7553558 -1.1919365
5.3194094 5.1316919 -0.17164607
8.297471 8.5521021 -0.32725003
9.2418566 8.6375446 -0.88786501
7.5293198 8.4127703 -0.24679312
7.1443048 8.5590353 -0.17501597
8.0628862 8.7592936 -0.69501495
7.3821487 8.6054983 -0.57725406
6.5590429 8.5288658 -0.10657117
6.1721601 8.6191654 -0.025783271
6.7465687 8.5284424 -0.48498762
6.2873316 8.5435038 -0.40079319
5.2821798 5.0882521 0.34886247
21.148714 21.851934 0.98197186
9.3879509 8.7820072 -0.0018691
5.185647 5.1882343 0.13890836
19.252293 21.444111 1.0788248
11.198506 13.41533 0.84499598
8.0969324 8.7895336 0.15175043
7.5269518 8.7597313 0.22210807
5.3433084 5.2178979 -1.1349869
4.9368706 5.2499094 -1.4149634
5.3645487 5.1417556 -0.70032686
8.3593864 8.5131521 -1.1882362
7.4602151 9.3874464 0.30165121
7.307209 9.8776236 0.3759349
7.7918806 8.6527872 -1.0944765
7.1227684 8.4884825 -0.95250833
7.4302649 8.6066809 -1.3894355
6.5095906 8.4216623 -0.85514927
6.1442995 8.5404863 -0.7754072
6.7657609 8.5131607 -1.2624588
6.4610877 8.7302999 -1.1911647
5.322484 5.1025615 -0.17071648
8.3549337 8.5575123 -0.32923195
9.3142891 8.6504107 -0.89324337
5.2338719 5.2029581 -0.38457268
7.5503473 8.3831491 -0.24646996
7.1416683 8.5012798 -0.17343174
7.9395823 8.5718584 -0.67813814
7.3545313 8.5187092 -0.57142013
6.6410413 8.5792265 -0.10920784
6.5825777 9.1343164 -0.04030342
6.7932777 8.5321407 -0.48703331
6.2608328 8.4513798 -0.39561045
9.6766996 9.2333593 0.46718663
8.5036774 8.7090311 0.5158751
9.2834253 8.6302042 0.00106594
5.1863742 5.156352 0.13911331
19.324928 21.389456 1.0790673
18.020426 21.474791 1.2322593
8.4815712 9.1475544 0.14933199
7.5087647 8.682991 0.22201332
5.3667226 5.2079754 -1.1366786
4.9614291 5.2428627 -1.4175117
5.4066324 5.1494288 -0.70473808
8.3484774 8.4486189 -1.1819218
6.9660878 8.7122622 0.29498303
7.2679343 9.7598381 0.37429911
7.8484564 8.6606007 -1.0993974
7.2709713 8.610714 -0.9724226
7.6580453 8.815465 -1.432853
6.5862703 8.4654455 -0.86335123
6.1257043 8.4581356 -0.76810217
6.8334417 8.5428343 -1.2713642
6.4731259 8.6892452 -1.18782
9.0007696 8.55021 -0.43141407
8.520093 8.6726208 -0.33815065
9.3458185 8.6251526 -0.89376396
5.2629094 5.1991439 -0.38602567
7.6048985 8.3904171 -0.24816658
7.7963505 9.2251606 -0.20704482
8.1000404 8.689537 -0.69303834
7.3499336 8.4593449 -0.5680865
6.982233 8.9597044 -0.12414891
6.1910801 8.531579 -0.024459239
6.833817 8.5278587 -0.48843974
6.2956781 8.4428949 -0.39641666
9.6489639 9.1493664 0.46565914
9.2648678 8.5590258 0.0020768901
5.1897879 5.1273379 0.139281
19.418947 21.3582 1.0802804
18.18441 21.53269 1.2377572
8.2791672 8.8742189 0.15089197
7.5464811 8.6714525 0.22203498
5.3816428 5.1897173 -1.1363403
5.7043681 5.9846587 -1.6455824
5.4343576 5.14329 -0.70669854
6.9909158 8.6872196 0.29495111
7.4181695 9.8972244 0.37707162
7.8850298 8.6461544 -1.1009631
7.3827701 8.6880512 -0.98625767
7.5830035 8.6733494 -1.410724
6.7125249 8.571373 -0.87955487
6.2107038 8.5194407 -0.77746761
6.8178754 8.4689369 -1.2621889
6.5561447 8.743576 -1.1999121
8.9548283 8.4534836 -0.42624962
9.446435 8.6629257 -0.90243858
5.2551208 5.1587548 -0.38328117
7.616375 8.3502722 -0.24727787
7.3124924 8.5950441 -0.17969976
8.060298 8.5929193 -0.68558824
7.4694762 8.5430622 -0.57794851
6.6576982 8.490221 -0.10745007
6.3930001 8.7530937 -0.031035241
6.871891 8.520298 -0.48959047
6.3484602 8.4582672 -0.39895052
9.5318661 8.9821548 0.4617424
5.1482525 5.1919513 0.39166093
9.299099 8.5366173 0.0019138301
5.2172508 5.1222548 0.13913195
19.535946 21.351599 1.0825245
11.33867 13.325953 0.84580231
8.2685957 8.807415 0.15115044
7.7498064 8.8497047 0.22239771
5.3979239 5.172781 -1.1363403
5.5143161 5.1858063 -0.71748143
7.7478108 9.5618057 0.30417174
7.4744468 9.9074497 0.37765384
7.9242759 8.6344938 -1.1029763
7.4396791 8.6996508 -0.99107897
7.7667828 8.8282461 -1.4443378
6.6096811 8.3864536 -0.85855007
6.2350888 8.4966717 -0.77709305
6.8682194 8.4766769 -1.2673163
6.6860118 8.8593292 -1.2220383
9.165247 8.5971031 -0.43926382
9.4927826 8.6506157 -0.90469414
5.2926316 5.1631765 -0.38570279
7.9785361 8.6906433 -0.26731431
7.369277 8.6070204 -0.181284
7.9925785 8.4677029 -0.67509723
7.5370269 8.5660849 -0.58225453
6.6557631 8.4332409 -0.10610244
6.4735904 8.8055897 -0.03302129
7.0146866 8.6409588 -0.50135326
6.5453534 8.6649265 -0.41530484
9.5717344 8.9630775 0.46205574
5.1617231 5.1729131 0.39155874
9.4131985 8.5866966 -1.025e-05
5.2447281 5.117053 0.13898289
19.53651 21.218121 1.0795527
11.350631 13.255307 0.84411633
8.2879639 8.7726908 0.15120582
7.6285205 8.6554327 0.22209182
5.419838 5.1612554 -1.1376936
5.5203958 5.1590052 -0.71576595
5.2734022 5.2232556 -0.65736848
7.7359924 9.4863615 0.30364531
17.205976 22.714005 0.60064429
7.867559 8.5192184 -1.0891082
7.4617958 8.6701946 -0.99024057
7.9005408 8.9241371 -1.4670269
6.6372347 8.3672037 -0.8587501
6.3666911 8.6198483 -0.7937634
7.0530767 8.6481924 -1.3013191
6.5595207 8.6341801 -1.1888492
9.2405157 8.6131115 -0.44267231
5.1653852 5.1449552 -0.11869681
9.6338406 8.7235022 -0.91805333
5.2802973 5.1186738 -0.38247395
7.9446287 8.599618 -0.26367867
7.4431243 8.6384478 -0.18376364
8.0549316 8.4800673 -0.67905033
7.5902843 8.572299 -0.58503258
6.7084146 8.4450998 -0.10733286
6.4668374 8.7385159 -0.031741381
7.0785241 8.663619 -0.50506115
6.459301 8.4946451 -0.40447873
9.6467733 8.9764614 0.46330911
5.1708894 5.1495919 0.39130324
9.3629379 8.4874039 0.00168556
5.2922568 5.1312904 0.13857296
19.687389 21.247484 1.083313
18.193781 21.135979 1.2269082
8.4218292 8.8579912 0.15049505
7.6106658 8.5804529 0.22199978
5.4531488 5.160521 -1.1417538
5.2813196 5.1982746 -0.65596527
7.7123275 9.3971977 0.3029753
17.294203 22.682123 0.60103244
7.9661613 8.5714598 -1.1009631
7.4487343 8.6000118 -0.98374224
7.9771562 8.9540892 -1.4773912
6.6286163 8.3028545 -0.85314882
6.4020271 8.6110115 -0.79507458
7.1356859 8.6932631 -1.3131931
6.5794048 8.6040602 -1.1873055
9.2851448 8.6002913 -0.44391173
5.1829367 5.1301136 -0.11878687
9.7146139 8.7410679 -0.9242993
5.3077965 5.1131654 -0.38376546
8.0575304 8.6666336 -0.26876855
7.4558573 8.5983782 -0.18300594
8.1478252 8.5237703 -0.68634844
7.4914017 8.4066162 -0.57183689
6.9026957 8.6328163 -0.11518428
6.4311523 8.6330214 -0.029402271
7.114603 8.6521111 -0.50595611
6.4266801 8.3964748 -0.3988353
9.6955166 8.9650793 0.46385741
5.1898727 5.1361461 0.39140546
9.5309677 8.5848055 -0.00141254
5.3198323 5.125782 0.13842389
19.797705 21.232281 1.0852538
11.474211 13.230601 0.84638876
8.4759407 8.8588924 0.15031967
7.8102803 8.7508612 0.2223517
5.5394654 5.2097778 -1.1583327
5.2905507 5.1746864 -0.65479594
17.133535 20.69396 0.42030686
17.382406 22.6499 0.60142058
8.1345758 8.6970367 -1.1242261
7.4913597 8.594595 -0.98625767
7.936676 8.8521605 -1.4628253
6.8347034 8.5049267 -0.8819555
6.3125105 8.4343376 -0.77671838
7.0895567 8.5823574 -1.297541
6.5883164 8.5597258 -1.1834464
9.3003416 8.5602808 -0.44308549
5.1678023 5.0828705 -0.11680496
9.7970839 8.7595301 -0.9307186
5.3554087 5.1269031 -0.38731718
8.2119894 8.7767086 -0.27628219
7.7580976 8.8918047 -0.19747059
8.1066685 8.4278545 -0.67889833
7.6439967 8.5244398 -0.58503258
6.9172153 8.59554 -0.11459833
6.4068308 8.5438595 -0.0275045
7.1200585 8.6036253 -0.50378257
6.4882541 8.4221983 -0.40217531
9.8283663 9.0304241 0.46663833
5.2074046 5.1212211 0.39145654
9.784791 8.7570763 -0.0063695
9.1553049 8.7919006 0.088990152
19.846519 21.151039 1.0844653
18.671276 21.417789 1.2461871
8.5134649 8.8422842 0.15025505
7.8950591 8.7903872 0.22246809
5.5687265 5.2045054 -1.1613777
5.312458 5.163599 -0.65573138
7.361062 8.8572865 0.29787046
7.0708566 9.1285667 0.36567673
8.0785713 8.5833406 -1.1105816
7.6125116 8.6788931 -1.0013506
7.9075408 8.7638378 -1.4507804
6.8212247 8.4339972 -0.87555397
6.3843546 8.4750128 -0.78383613
7.1241055 8.56917 -1.2991602
6.7023587 8.6520882 -1.2019706
9.1750965 8.3924875 -0.43244684
5.2307301 5.1128654 -0.11977786
9.8454409 8.7471952 -0.93314749
9.0578604 9.6162367 -0.32443422
7.5176291 8.5603905 -0.18341924
8.2971439 8.571064 -0.69683945
7.5280752 8.341568 -0.57017004
7.0060158 8.649745 -0.11746937
6.4852691 8.5924425 -0.029402271
7.1496124 8.5842762 -0.50403827
6.5390725 8.4333925 -0.40447873
9.8714809 9.0129595 0.46702999
5.2206168 5.1020327 0.39135432
9.8496752 8.7594452 -0.00718479
9.1857653 8.7658615 0.088952877
19.96644 21.145229 1.0868307
11.769106 13.400328 0.85819066
8.5174904 8.7911272 0.15041198
7.9092574 8.7506762 0.22244103
5.3172617 5.1358047 -0.65386051
7.3515391 8.7897139 0.29740781
17.640837 22.690336 0.60405439
8.3534384 8.8185501 -1.1510677
7.5714674 8.5772409 -0.99045014
6.831306 8.3925037 -0.87295341
6.4229379 8.4708118 -0.7857092
7.1446123 8.5391617 -1.2978109
6.7124829 8.6090536 -1.1983685
9.2532444 8.4105358 -0.43606186
5.2296276 5.0796423 -0.11869681
9.9985571 8.826745 -0.9477213
9.1789474 8.7026978 -0.81126243
8.1126757 8.5628042 -0.26723349
7.5207195 8.5097208 -0.18217944
8.4844112 8.7088804 -0.71432447
7.6318431 8.4037228 -0.57822639
7.0787573 8.6833696 -0.11957869
6.5086122 8.5672417 -0.02926987
7.056973 8.4197969 -0.49214756
6.7430992 8.6414824 -0.42117864
9.9190311 8.9993353 0.46753919
5.2351894 5.0842094 0.39130324
9.7390442 8.6069059 -0.0041845301
9.5767918 9.0831203 0.084275968
20.23814 21.298145 1.0958678
18.604612 21.072134 1.2350448
8.5478621 8.7671862 0.15039352
7.7984324 8.5730896 0.2221622
5.3476539 5.1328783 -0.65619916
18.167194 21.5242 0.4306761
7.4739795 9.5268269 0.37346739
8.0966091 8.4950848 -1.1047659
7.6181426 8.5757608 -0.99359453
6.8551121 8.3679276 -0.87255335
6.3676362 8.3427534 -0.77297223
7.2392449 8.5968561 -1.3121136
6.7443819 8.5941734 -1.1993976
9.3642702 8.4575558 -0.44194931
5.2656169 5.082684 -0.11995801
10.030742 8.7992201 -0.94824165
9.2265196 8.6929951 -0.81352264
8.1727114 8.5719118 -0.26917249
7.608366 8.5548916 -0.18534787
8.3886099 8.5571289 -0.70094466
7.8340893 8.573041 -0.59642267
7.1466966 8.7104492 -0.12145364
6.702579 8.7663469 -0.0353604
7.1040411 8.4219446 -0.49419332
6.666934 8.4881048 -0.41150421
9.8163347 8.8505516 0.46409243
5.2769442 5.0928197 0.392223
9.9918222 8.7737427 -0.0090762703
9.118638 8.5925102 0.090518072
20.353354 21.284981 1.0979906
18.894846 21.266287 1.2474332
8.6427431 8.8086672 0.14995044
7.7754874 8.4938517 0.22206205
5.3752117 5.1270614 -0.65807009
18.127138 21.340609 0.42935202
6.7956843 8.6024475 0.35758108
8.1908197 8.5397434 -1.1157262
7.6926446 8.6052761 -1.0011408
8.041935 8.7458887 -1.4617047
6.9499226 8.4290991 -0.88335574
6.4699898 8.4223795 -0.78477269
7.3111796 8.6268835 -1.3215588
6.7492838 8.5448761 -1.1947665
9.355051 8.3961535 -0.43947035
5.3275404 5.1105394 -0.12284085
9.972578 8.6932087 -0.93835253
9.2319956 8.6434879 -0.81110102
8.1718655 8.5174179 -0.26755667
7.4663386 8.3414097 -0.1766002
8.3747454 8.4896526 -0.69653535
7.7936196 8.4748068 -0.58947748
7.1408353 8.6479521 -0.11993024
6.7750649 8.8039846 -0.036993351
7.2936654 8.5909233 -0.51030326
6.6935654 8.4671192 -0.41150421
9.8605013 8.8343163 0.46452332
13.471202 12.975528 0.68280536
10.165742 8.8695536 -0.01223961
9.5112877 8.9076891 0.085841157
20.528336 21.333199 1.1027215
19.247684 21.527428 1.2631935
8.2346926 8.9410715 0.22292829
6.2468805 5.1360316 -1.2954788
5.7849612 5.7359586 -1.6192502
4.9180188 5.3940988 -1.3677145
5.4185929 5.1362057 -0.66251343
7.8074245 9.155983 0.30198622
7.4083638 9.3212824 0.37066719
8.3130636 8.6124268 -1.1311603
7.868257 8.7470121 -1.0246187
8.025095 8.6725159 -1.452461
7.0859685 8.53866 -0.90055966
6.5862646 8.5187969 -0.79863346
7.4568782 8.7423115 -1.3463863
6.7687135 8.5142937 -1.1932228
9.4276791 8.407835 -0.44267231
9.9787226 8.64361 -0.93592364
9.1789885 8.5395918 -0.80222172
8.3836145 8.6825018 -0.27830201
7.605927 8.4444122 -0.18245493
8.6125793 8.6751308 -0.71934199
7.8499489 8.4825602 -0.59253335
7.1807842 8.6408195 -0.12051618
6.7990313 8.7779045 -0.036860961
7.394722 8.6542873 -0.51759106
6.7312913 8.4601364 -0.41254079
9.8582869 8.7767582 0.46373993
13.536425 12.956675 0.68367398
10.196586 8.8401852 -0.01230481
9.5699139 8.906435 0.085449859
20.45746 21.126539 1.0967169
18.95731 21.068336 1.2435482
8.2695255 8.9225035 0.22294182
6.2415838 5.0990086 -1.2905605
5.3616581 5.2857037 -1.4850409
4.8940635 5.333746 -1.3550916
5.4827733 5.1810875 -0.67163408
7.8504696 9.177083 0.30233717
6.8920984 8.6408129 0.35882872
8.1201229 8.387064 -1.0978317
7.8394513 8.6872969 -1.0179108
7.0814967 8.5061502 -0.89775908
6.5667882 8.4658804 -0.79357612
7.3078322 8.5412378 -1.3123835
6.7944098 8.5191889 -1.1957958
9.54107 8.4817247 -0.44959259
8.9790392 8.5568104 -0.34923145
10.037604 8.6669025 -0.94112843
9.2799196 8.606678 -0.81190819
8.7400284 9.0216942 -0.29817683
7.6913595 8.5127068 -0.18617441
7.9702392 8.5859756 -0.60350668
7.2944751 8.7490692 -0.1250864
6.8079171 8.7608871 -0.036684409
7.4135165 8.6487112 -0.51810253
6.7756166 8.4886398 -0.41542
26.361132 23.337032 0.89481443
10.196818 8.812418 -0.01201132
9.3877935 8.7087364 0.087946698
20.611912 21.21903 1.1019936
19.583038 21.696329 1.2760216
5.1802197 5.2122779 0.17299037
8.3963003 9.0313177 0.22316651
6.2235622 5.0681477 -1.284588
5.343379 5.2513399 -1.4769715
4.8971515 5.320272 -1.3534629
5.5250006 5.1884022 -0.6758436
7.9132695 9.1917095 0.30275196
8.2590275 8.4765692 -1.1159499
7.8213506 8.612462 -1.0107836
7.0966482 8.4701614 -0.89595866
6.5909081 8.4420662 -0.79320157
7.3644481 8.5527105 -1.3185904
6.8174238 8.4931536 -1.195024
9.6876373 8.557251 -0.45785558
9.1188049 8.6359568 -0.3562583
10.267752 8.8087807 -0.96437699
9.3932333 8.6573696 -0.82143325
8.4859428 8.7057343 -0.28185683
7.9420629 8.7359867 -0.19767724
7.9034195 8.4600868 -0.59392238
7.3025961 8.7031832 -0.1242075
7.1166525 9.10079 -0.046791151
7.3504558 8.521307 -0.50928044
7.7722349 9.6806707 -0.50502378
26.410271 23.23299 0.89418769
24.352749 23.119226 1.0629588
15.046172 12.904902 -0.11548792
9.2331104 8.5107489 0.090257213
21.258904 21.746925 1.1271639
19.637676 21.619898 1.2752886
5.2490811 5.2481165 0.17264882
8.2596722 8.8278294 0.22283895
6.2425218 5.0510392 -1.2852906
5.3472228 5.2222819 -1.4731491
4.9178171 5.309185 -1.3546844
9.4843502 8.8760204 -1.3128848
18.633755 21.453821 0.43267018
7.5251989 9.3173599 0.37163755
8.2981663 8.4633284 -1.1179631
7.8764768 8.6187458 -1.0151857
5.2958174 5.2726121 -0.87461483
7.1206493 8.4447889 -0.8955586
6.623529 8.429162 -0.79413807
7.4940767 8.6476097 -1.3399097
6.9198766 8.5659885 -1.2107179
9.7310123 8.5412369 -0.45899171
9.066021 8.5317917 -0.35130349
9.4746742 8.6777458 -0.82740659
8.7502575 8.9196253 -0.29551071
7.8671741 8.5986872 -0.1924424
5.2448897 5.2151113 -0.35124382
7.9190512 8.423563 -0.59281117
7.2975678 8.6420889 -0.12274268
6.9059849 8.7730322 -0.038229119
7.5608525 8.7087622 -0.52718037
6.8751264 8.5034628 -0.41968143
26.552425 23.2104 0.89598948
24.416536 23.03437 1.0626522
15.156729 12.91715 -0.11698805
9.4099398 8.6197977 0.088356629
8.6063051 8.7708149 0.57729888
20.148706 22.043848 1.2994055
5.1915097 5.1585598 0.17312881
8.2066574 8.7157536 0.22267924
6.2598968 5.0326314 -1.2856419
5.3579731 5.2000332 -1.4714502
4.9304819 5.2893987 -1.3534629
9.2741003 8.6238594 -1.2745314
7.943203 9.1102057 0.30241695
7.6349545 9.3931589 0.37341195
8.3289165 8.4414454 -1.118634
8.1143904 8.8242702 -1.0480965
5.3010664 5.2448497 -0.87229717
7.2646427 8.5601692 -0.91376269
6.6512136 8.4098711 -0.79432535
7.4519987 8.5450182 -1.3256067
7.0041475 8.6151276 -1.2225528
9.8784323 8.6154022 -0.4672547
9.1102629 8.5196724 -0.35238454
9.5077829 8.6533098 -0.82805234
8.5264111 8.6380472 -0.28104895
7.8090677 8.4810944 -0.18810304
5.2911448 5.2279339 -0.35443673
7.9947257 8.4509239 -0.59781164
7.3519483 8.651042 -0.12397313
6.9409466 8.7607079 -0.038493931
7.5144506 8.600956 -0.52002037
6.9998236 8.6028509 -0.4286648
26.656956 23.154362 0.89681196
9.7543221 9.1229334 0.54612386
15.510432 13.133971 -0.12367342
9.314456 8.4781981 0.089903183
19.804234 21.529932 1.2769746
5.2162628 5.1506219 0.17307343
8.1818523 8.6346407 0.22257638
6.2864766 5.0215039 -1.2881012
5.3686409 5.1777639 -1.4697514
4.9590883 5.2867756 -1.3571275
9.5632343 8.8378639 -1.3166265
7.7972407 8.8871498 0.30031121
7.6517959 9.3536215 0.37313467
8.4101267 8.4701214 -1.1273577
7.9277825 8.5661564 -1.0147665
5.3033571 5.2143464 -0.86940002
7.261693 8.5025711 -0.90916169
6.6392746 8.3405476 -0.78851879
7.6308346 8.6939936 -1.3569109
7.1301169 8.7145805 -1.242878
9.6121254 8.3311415 -0.44721699
9.1822653 8.5332699 -0.35517725
9.5909996 8.674325 -0.83418709
7.8288951 8.4491749 -0.18775864
5.2875524 5.1917963 -0.35230812
8.1145611 8.5242414 -0.60725707
7.3256721 8.5657358 -0.12157083
7.0641422 8.8594599 -0.041892249
7.5850358 8.6266718 -0.5242396
6.9095039 8.4368773 -0.41795385
25.566257 22.067944 0.86673146
9.7551584 9.06633 0.54515302
16.014215 13.473409 -0.13352214
9.5320187 8.6223507 0.087499499
19.828363 21.420641 1.2746289
5.2582021 5.1593313 0.17290728
8.4333925 8.8453197 0.22301762
6.3269591 5.021234 -1.2937223
5.3778014 5.1541362 -1.4676278
4.9823675 5.2783151 -1.3591635
9.5150156 8.7377644 -1.3044658
7.6220932 8.6336813 0.29787046
7.7052288 9.3589239 0.37366146
8.0790663 8.6753931 -1.0340518
5.3225522 5.2004166 -0.8699795
7.2558532 8.4420662 -0.90416062
6.6766133 8.333663 -0.79020452
7.8382998 8.8730574 -1.3938823
7.1386008 8.6691284 -1.2390187
9.8019857 8.4413414 -0.45837206
9.1460323 8.4459658 -0.35130349
9.7262421 8.741643 -0.84597236
7.9465084 8.5226936 -0.19237353
5.2966743 5.168222 -0.35154787
8.0476627 8.400528 -0.59781164
7.3329291 8.5199976 -0.12069196
7.0644855 8.8028545 -0.040921301
7.5895572 8.5774412 -0.52206606
7.0550022 8.5602465 -0.42877996
25.772148 22.104582 0.87025654
9.7879896 9.0397196 0.54530632
15.614145 13.054193 -0.12413
9.674861 8.6968813 0.086046107
5.1133609 5.1288853 0.42421493
19.970413 21.438747 1.2786605
5.291626 5.159482 0.17279652
8.3989668 8.7537079 0.2228958
5.1963391 5.1649742 -1.0440446
5.4081655 5.1506462 -1.4718748
9.6800804 8.8339634 -1.3264488
7.6411867 8.6007423 0.29777473
7.754952 9.359354 0.37410504
8.1510563 8.6979628 -1.0409694
5.3360128 5.1809239 -0.86940002
7.3214951 8.4642897 -0.91016185
6.9170885 8.5797853 -0.82242167
7.8344564 8.8129139 -1.3874055
7.1342459 8.6084099 -1.2325869
10.00327 8.5594959 -0.47025007
9.1813335 8.4253159 -0.35184404
9.7269392 8.6870918 -0.84306639
5.2344747 5.2183266 -0.089167938
8.0059881 8.5327444 -0.19402666
5.3358684 5.1736889 -0.35398057
8.1265097 8.4299078 -0.60308999
7.5263262 8.688447 -0.12813318
7.0106726 8.6793232 -0.03805257
7.5233169 8.4494267 -0.51311606
7.0602489 8.5118647 -0.42682201
25.743996 21.940577 0.86774987
9.8119268 9.0048628 0.54515302
15.482614 12.862184 -0.12047748
9.8331518 8.7839499 0.084406398
5.2061768 5.1887298 0.42749012
19.782295 21.103003 1.2649528
5.2833066 5.1192613 0.17295343
8.4721642 8.7748585 0.22298512
5.2858276 5.2205043 -1.0607206
5.43856 5.147016 -1.476122
17.751083 21.33918 0.59041381
5.2200518 5.1731687 -0.61110121
8.2042122 8.6998606 -1.0449522
5.34512 5.1572876 -0.86795151
7.3703256 8.466711 -0.91356266
6.8251691 8.4108362 -0.8046273
7.9402552 8.8752232 -1.4033275
7.1283202 8.5462742 -1.2258976
10.197779 8.6700106 -0.48161173
9.3020639 8.4827833 -0.3576096
9.7214413 8.6273127 -0.83951467
5.2707891 5.2214746 -0.090299033
8.1326952 8.6138649 -0.19905482
5.3319249 5.1375971 -0.35185197
8.4232321 8.684185 -0.63017607
7.5009041 8.604599 -0.12578949
7.1372638 8.780055 -0.041539181
7.6139231 8.4969521 -0.51925319
7.1073723 8.5142126 -0.4286648
25.826548 21.871204 0.86810237
9.8121529 8.9483376 0.54418218
16.225395 13.391788 -0.13531576
9.8532372 8.7463589 0.084499568
5.1483364 5.0994592 0.42433622
19.848499 21.040747 1.2649528
5.3239398 5.126132 0.17279652
8.8974133 9.159296 0.22375934
5.286653 5.1887145 -1.0571929
5.4732733 5.1472454 -1.4816433
9.7457056 8.7822943 -1.3280859
8.1201811 9.0228958 0.30283171
19.041332 22.747307 0.61686325
5.2263298 5.1470184 -0.60953546
8.268383 8.7130785 -1.050612
5.3684607 5.1472945 -0.86940002
7.4981217 8.5585375 -0.92896628
6.8440213 8.3800831 -0.80350351
7.9428415 8.8223085 -1.3982
7.1182542 8.4796991 -1.2184362
10.309019 8.7086601 -0.48729247
9.2340908 8.3674622 -0.35184404
9.5484982 8.419651 -0.81788152
5.2628727 5.1811438 -0.088925563
8.1349897 8.5621367 -0.19781499
8.3586969 8.5632505 -0.62100846
7.5027828 8.5524969 -0.12467623
7.1370339 8.7234802 -0.040568229
7.7491183 8.5928068 -0.52960962
7.1494536 8.5102262 -0.43004692
25.907372 21.800255 0.86841571
24.849323 22.572748 1.0627545
16.027472 13.144496 -0.13026096
9.8402395 8.6795635 0.085002661
5.2258081 5.1433401 0.4269442
20.238935 21.320673 1.2822524
8.9314566 8.5215883 0.14993197
9.0628653 9.2717371 0.22402462
5.3043442 5.1734552 -1.0575136
5.9750395 5.5807185 -1.625621
9.7762003 8.7542925 -1.3285536
8.214426 9.0698376 0.30361339
17.871929 21.211926 0.59013659
5.2210932 5.1097989 -0.60618025
8.255969 8.6452608 -1.044533
5.3989787 5.1440048 -0.87229717
7.4392071 8.4381132 -0.91596329
6.9358678 8.4386883 -0.81324351
8.178587 9.0259581 -1.4402988
7.1882548 8.5089102 -1.2271838
15.418947 12.925882 -0.82989693
9.3729591 8.4402533 -0.35869071
9.9311056 8.7030125 -0.85630459
5.2805562 5.1659775 -0.089006349
8.1604681 8.5350924 -0.19774611
9.1183815 8.6512041 -0.74564552
8.265584 8.4142799 -0.60906285
7.4937968 8.4885025 -0.12309423
7.2277732 8.7783413 -0.042774931
7.6012702 8.3766727 -0.51298827
7.2532864 8.5793905 -0.43695718
26.067827 21.795647 0.87076575
25.112913 22.668882 1.069397
16.073339 13.097868 -0.1303588
9.8314238 8.6168985 0.085449859
5.2376375 5.1227207 0.42676228
20.232712 21.180326 1.2783674
9.4817076 8.9877663 0.14660892
5.3148804 5.1512909 -1.0562309
9.8021765 8.7222109 -1.3283198
8.2307272 9.0307074 0.30346981
18.203327 21.468603 0.59582013
5.2514186 5.1071754 -0.60841709
8.2748384 8.6106558 -1.0432752
5.4179964 5.1297274 -0.87287652
7.5212941 8.4770889 -0.92436516
6.9914546 8.4522142 -0.81755161
7.9566288 8.726923 -1.3898344
7.3315401 8.6240644 -1.2505963
15.342724 12.780372 -0.82204711
9.4900856 8.4922209 -0.36418602
10.168509 8.8554583 -0.87890643
5.2852592 5.1382575 -0.088359997
8.2964754 8.6234407 -0.20318756
9.1237106 8.6020365 -0.74336493
7.5257554 8.4708834 -0.12332863
7.395268 8.9252682 -0.047629699
8.0201874 8.7807379 -0.55019456
7.2505269 8.521513 -0.43430823
28.338558 23.540506 0.92681402
24.76757 22.215746 1.0550902
16.363333 13.248328 -0.13557665
10.076747 8.7768564 0.082748048
5.2321301 5.0854168 0.42585251
20.43754 21.260864 1.2856977
9.1350536 8.6062479 0.14898121
5.1360607 5.172626 0.21634215
5.3296127 5.1332026 -1.0559102
9.9543028 8.8021421 -1.3479642
8.2455072 8.990097 0.3033103
18.282351 21.425014 0.59606969
5.2516623 5.0755162 -0.60595655
8.2577028 8.5387697 -1.0365672
5.5309663 5.2031984 -0.89228702
7.6196418 8.533412 -0.93516767
7.0967331 8.5252771 -0.82916474
8.0457802 8.768918 -1.4022481
7.3804564 8.6266613 -1.2549701
15.438248 12.777886 -0.82576549
9.4973431 8.4450684 -0.36301491
10.161666 8.7934027 -0.8751933
5.29849 5.1188622 -0.088198408
8.245842 8.5167475 -0.19933037
9.1681852 8.5896578 -0.74518943
7.5309544 8.4234037 -0.12239113
7.1218719 8.5389023 -0.03721403
7.985455 8.6880417 -0.54431313
7.3200006 8.5488424 -0.43810886
28.805849 23.775673 0.93680167
25.017706 22.298937 1.0612726
16.46102 13.241914 -0.13675068
10.098231 8.7399092 0.082822584
5.2567363 5.0772576 0.42621642
20.526442 21.219561 1.2868706
9.198616 8.6116047 0.14875044
5.1551032 5.1593051 0.21634756
5.3485737 5.1191545 -1.0565516
9.993825 8.7813358 -1.3498352
8.536109 9.2472258 0.30638915
18.44198 21.475273 0.59803814
5.3179245 5.1069961 -0.61378545
8.2581921 8.4856424 -1.0325844
5.5385857 5.1777167 -0.89054871
7.7717566 8.6482821 -0.95397198
7.143887 8.5274076 -0.83216166
8.0517311 8.7203455 -1.3979303
7.4823828 8.6907768 -1.2698922
15.697609 12.909185 -0.84043229
9.5940733 8.4775085 -0.36724904
10.226968 8.7939968 -0.87922925
5.3709583 5.1559658 -0.091349319
8.3115273 8.5309696 -0.20125897
9.1790428 8.5458946 -0.74351692
5.1713805 5.1520944 -0.2961148
7.602962 8.4501247 -0.12438327
7.1512275 8.5195522 -0.037302289
7.9855428 8.6336632 -0.54175603
7.4898143 8.6925154 -0.45077783
28.894327 23.696449 0.93715417
25.374811 22.47497 1.0710832
16.35869 13.075441 -0.13375042
10.130182 8.712059 0.082766689
13.608356 13.004556 0.77556807
9.3591347 8.7063503 0.14791045
5.1741133 5.1459136 0.21635297
5.3646307 5.1023245 -1.0565516
8.4920626 9.1708298 0.30570319
18.572174 21.558483 0.60008979
5.3129749 5.0863132 -0.6117723
8.4143 8.6195669 -1.0541756
5.2558389 5.2202606 -0.82892793
7.7612867 8.6095133 -0.95037115
7.144496 8.5009031 -0.83028853
8.1666546 8.8165092 -1.4181701
7.5942936 8.7933159 -1.2894454
15.674571 12.849115 -0.83754027
9.8094177 8.6411219 -0.37941089
9.0425749 8.628933 -0.2956723
8.3332806 8.5265007 -0.20167224
9.290576 8.6221561 -0.75370395
5.1766448 5.1411438 -0.29583699
7.7075391 8.5388784 -0.12836757
7.2814765 8.6477652 -0.04131851
7.9514656 8.5700073 -0.53728104
7.3654156 8.5203056 -0.43856961
29.117397 23.802782 0.94185424
25.628752 22.628454 1.0785432
16.75651 13.349573 -0.14160983
15.152081 13.006536 0.02120279
24.146574 22.975071 1.2157147
5.1238441 5.2191572 0.47232008
9.2214651 8.5518761 0.14886121
5.1680365 5.1236486 0.21632591
5.402823 5.1223097 -1.0632861
8.3773508 8.9907751 0.30402815
18.804691 21.690577 0.6035831
5.3433743 5.0832458 -0.61400908
8.4149103 8.5660753 -1.0501928
5.2679987 5.1995363 -0.82808763
7.8995442 8.7071705 -0.96697497
7.1839886 8.4936514 -0.83216166
8.1645136 8.7589836 -1.412233
7.4804254 8.6059284 -1.2614021
15.558283 12.672615 -0.82710826
9.7524719 8.5364046 -0.37436602
9.0057077 8.5401154 -0.29211748
9.3675518 8.638793 -0.75887334
5.2139955 5.1459546 -0.29792058
7.8326936 8.622427 -0.1326448
7.5909319 8.9595785 -0.050983921
8.015213 8.5842934 -0.54073316
7.4810228 8.5997686 -0.44640124
29.30229 23.800629 0.94463509
26.925262 23.624731 1.1202374
16.54254 13.094873 -0.13629414
15.081912 12.863984 0.022562999
23.951153 22.646595 1.2045549
5.1178203 5.1802063 0.47114718
9.7433796 8.9772387 0.14575969
5.1883655 5.1116147 0.21633403
5.4837584 5.1660037 -1.0777172
5.3475709 5.3382883 -1.4210564
8.3945856 8.9527645 0.30390054
19.160362 21.961666 0.60965484
9.1761274 8.6492634 -1.2031856
5.2772627 5.176003 -0.82668704
7.8313651 8.5781803 -0.95277178
7.2093482 8.4695206 -0.83197427
8.1254025 8.6626139 -1.3990097
7.7093019 8.8142347 -1.3012803
15.883988 12.854506 -0.84611309
9.6332664 8.3782444 -0.36562744
9.1184683 8.5924616 -0.29688418
9.4241047 8.6362085 -0.76191425
5.2031655 5.1029105 -0.29528141
7.7840228 8.5153189 -0.12936366
7.2476759 8.498189 -0.038317379
7.9585757 8.4705286 -0.53293389
7.640491 8.7282629 -0.45803368
29.493683 23.802565 0.94757265
26.708679 23.286234 1.1103759
16.229588 12.765124 -0.12895651
15.213686 12.894244 0.021445019
24.361887 22.889929 1.2186866
5.1438971 5.1740599 0.47166032
9.5262289 8.7228746 0.14729199
5.2214875 5.1121416 0.21636651
6.2168665 5.1200857 -1.2354752
5.5115271 5.1595044 -1.0802827
5.3421483 5.2993207 -1.4145412
8.2892427 8.7855272 0.30235314
7.6116414 8.6455116 0.36528859
9.2628469 8.6759682 -1.2123566
5.2935004 5.1593952 -0.82668704
7.8326392 8.5257444 -0.94897091
7.2346344 8.4453106 -0.83178699
8.3816395 8.878644 -1.4443468
7.782711 8.8421764 -1.3102853
15.958581 12.832021 -0.84838533
9.6037111 8.2994814 -0.36229417
9.3251905 8.7314005 -0.30682158
5.1776509 5.1845636 -0.043318879
9.2975664 8.4672251 -0.74610174
5.1949692 5.0627751 -0.29292005
7.9437046 8.6347046 -0.1351057
7.2756424 8.4768915 -0.03836152
8.0744944 8.5395479 -0.54124463
7.5020018 8.5150595 -0.44352204
17.082876 13.712201 0.63427401
27.456762 23.787878 1.1332158
16.171833 12.637843 -0.12693457
15.935634 13.421828 0.01313464
24.081291 22.484743 1.2040697
5.141819 5.1394372 0.47070736
9.6484375 8.7788496 0.14670122
5.237525 5.0957084 0.21636651
6.2222733 5.0917521 -1.2331069
5.3476562 5.2714725 -1.4112837
8.3181801 8.760891 0.30236909
7.8980331 8.9155188 0.37072265
9.2711077 8.6292629 -1.2094486
5.3309464 5.1634812 -0.83088869
7.9541755 8.6031666 -0.96297407
7.2779846 8.4421864 -0.83422208
8.350668 8.7906151 -1.4327427
7.7920842 8.7968588 -1.3066833
15.931645 12.728304 -0.84394407
14.588227 12.544917 -0.65751195
9.2338419 8.592042 -0.30027741
5.193912 5.1682725 -0.043318879
9.4870729 8.5848312 -0.76282656
5.2265587 5.0617552 -0.29444796
7.8373756 8.466238 -0.12936366
7.3465552 8.5055466 -0.039862081
8.0240545 8.4333382 -0.53408462
7.4877563 8.4450426 -0.43995166
17.166552 13.690839 0.63529235
27.551043 23.718485 1.13388
16.432806 12.758393 -0.1315002
15.865875 13.277864 0.01449485
24.367384 22.60869 1.2129854
5.1664171 5.1317406 0.47114718
9.7250109 8.7926617 0.14639661
5.2821651 5.1071362 0.21642065
6.2290859 5.0646896 -1.2310767
5.3474607 5.2381463 -1.4063975
8.3802776 8.770793 0.3027679
7.9711375 8.9415159 0.3716653
9.5262117 8.8101501 -1.244343
5.3300772 5.1301703 -0.82752734
8.026001 8.6261158 -0.96957552
7.338305 8.4584656 -0.83909202
8.4880371 8.8787022 -1.4543318
7.8960366 8.8583775 -1.3216054
16.120317 12.795974 -0.85375631
15.067554 12.876023 -0.68363738
9.213747 8.5196743 -0.29769206
5.132226 5.0743566 -0.039530531
9.3951473 8.448554 -0.75066292
5.2983055 5.0994687 -0.29986519
7.9732094 8.5583506 -0.13405102
7.3431492 8.447648 -0.038846999
8.1916294 8.554822 -0.54712605
7.6415348 8.5647955 -0.45100814
