# .PCD v0.7 - Point Cloud Data file format
VERSION 0.7
FIELDS x y z
SIZE 4 4 4
TYPE F F F
COUNT 1 1 1
WIDTH 1537
HEIGHT 1
VIEWPOINT 0 0 0 1 0 0 0
POINTS 1537
DATA ascii
8.737854 7.0264263 0.5446685
8.4055347 7.23945 0.61093736
9.0317955 7.0548968 0.15401196
8.5653028 7.1780543 0.22160186
3.1404777 1.9540682 -1.3582269
2.7684524 1.8948352 -1.1795337
5.6549468 5.4879327 -1.4292259
2.701112 2.1778054 -1.2010671
2.1442604 1.8879693 -0.92953974
2.5868969 1.9939432 -1.3122422
2.5172629 2.1197863 -1.2906374
1.9899018 1.967471 -1.0401837
1.7440827 1.8701541 -0.91001332
2.9740677 1.8652246 -0.86642647
3.0203233 2.0935459 -0.88277179
2.8622649 1.8829514 -1.0111233
8.1595488 5.5818133 -1.0034715
8.0203705 5.8564892 -0.95273656
7.978652 7.2295041 0.29188821
7.4502397 7.2259979 0.34948546
7.3706818 5.8979907 -0.84641391
7.5852556 7.0588484 -0.82674277
7.1405954 7.1160517 -0.73401213
7.8747582 7.1322823 -1.228456
8.4992466 6.2455025 -0.26553991
8.511405 5.644752 -0.67567843
10.463821 7.4793019 -0.82853669
7.6246381 6.0981178 -0.18506803
8.3216848 7.1339707 -0.16854136
8.509038 7.097671 -0.55933559
7.6264796 7.0876784 -0.096376091
7.2466445 7.2084055 -0.017397759
7.8975821 7.1401639 -0.4704119
7.370348 7.1436663 -0.38098365
8.7943096 7.0263119 0.54600281
8.4676399 7.2468858 0.61284322
9.0729103 7.0411568 0.15390119
8.5878134 7.1511078 0.22160186
3.1892295 1.9701177 -1.3788826
2.7774441 1.8882372 -1.181028
2.8072383 2.2476399 -1.2510698
2.1808414 1.9085443 -0.94533592
2.7384756 2.0952706 -1.3952941
2.4891224 2.0822878 -1.270269
1.9960737 1.9612093 -1.0401837
1.7599202 1.8755081 -0.91625977
2.9782767 1.8548688 -0.86586595
3.0442359 2.0961733 -0.88876504
2.8334992 1.8509216 -0.99684358
8.2346115 5.5950427 -1.0120487
8.0258942 5.8218966 -0.95086569
8.0445213 7.243104 0.29235083
7.4858332 7.2150769 0.34973496
7.3642316 5.8550835 -0.84283513
7.6615782 7.0848351 -0.83414435
7.1840863 7.1146531 -0.73682171
7.9192719 7.127337 -1.2325039
7.3670974 7.1012349 -1.109607
8.502718 6.2069473 -0.26463902
8.552433 5.6332669 -0.67810756
10.394754 7.3804159 -0.81933457
8.8431597 7.022037 -0.2468739
8.3774652 7.1363835 -0.17005669
7.6135168 5.8802133 -0.5207727
8.5680923 7.1015439 -0.56266928
7.7591138 7.1651301 -0.1007705
7.3032999 7.2194238 -0.018456999
7.9512243 7.14325 -0.47309691
7.420013 7.1468606 -0.38317192
8.8477144 7.0234323 0.54721582
8.5161982 7.2423153 0.61408937
8.5902452 7.1074696 0.22156666
3.2096403 1.968685 -1.3857679
2.7879517 1.8826517 -1.1832696
2.8172138 2.2411032 -1.2525403
2.1868272 1.9016827 -0.94533592
2.765439 2.1019175 -1.4069215
2.4817004 2.062669 -1.2621218
2.0570893 2.0882487 -0.92275339
2.0035498 1.9561971 -1.0409807
1.7620527 1.8659148 -0.91391742
3.0103328 1.8614644 -0.87483537
3.0492263 2.0855007 -0.88822025
2.8408799 1.8430516 -0.99749267
8.3147783 5.6111774 -1.0213611
8.0216265 5.7803392 -0.94759172
8.0761957 7.2257757 0.29244655
7.5415988 7.223423 0.35037264
7.3857141 5.8343749 -0.8432824
8.3764267 7.0982995 -0.9418174
7.3867908 6.0785513 -1.1342518
7.2375441 7.1228571 -0.74094248
7.9741907 7.1314082 -1.2384409
7.3936548 7.0821838 -1.1103787
8.550046 5.5933342 -0.67602557
10.069773 7.1011362 -0.78478605
8.9374733 7.0509934 -0.25059032
8.4242039 7.1307511 -0.17115872
7.6224403 5.8490095 -0.51986051
8.5980444 7.0809517 -0.56336373
7.8553982 7.2081213 -0.10370013
7.331634 7.2020645 -0.018633511
8.0004835 7.142097 -0.4753983
7.4539394 7.1345906 -0.38409328
70.565987 47.316727 1.8693732
9.9935846 7.0485363 0.093313053
8.9074745 7.025228 0.54867148
8.5693798 7.2413979 0.61555547
34.892937 26.637117 0.0042986702
8.5986528 7.0689855 0.2215423
3.1413221 1.9139286 -1.3498114
2.8015151 1.8791109 -1.1870055
2.7948911 2.2093873 -1.2378337
2.6522989 2.0042088 -1.3388189
2.4699814 2.0395956 -1.2515303
2.0157094 2.0342751 -0.89764684
2.008357 1.9486287 -1.0401837
1.8017856 1.8967535 -0.93499947
3.0079491 1.8470362 -0.8720324
3.062099 2.0802817 -0.89039963
2.8561497 1.8403389 -1.0013871
2.5837712 1.953231 -0.91525286
2.4960897 2.0637481 -0.88885927
8.3488817 5.5960393 -1.0238118
8.0864935 5.788763 -0.95437366
8.1333065 7.2308517 0.29281348
7.5859308 7.2204323 0.35078853
7.4275074 5.8294864 -0.84663755
8.4381618 7.1053529 -0.94726765
7.2666507 5.9408703 -1.1087614
7.7560172 7.0820594 -0.84094608
7.1477046 6.9898119 -0.72614515
8.0247593 7.1312656 -1.2435683
7.4029689 7.0465827 -1.1080632
8.7389698 6.2963724 -0.27562976
8.6177816 5.598886 -0.68123043
10.017036 7.0166988 -0.77735972
8.4786243 7.1313462 -0.17260523
7.6423664 5.8262401 -0.5200125
8.632576 7.0640454 -0.564475
7.9061327 7.2089334 -0.1048134
7.3699226 7.1944017 -0.019119009
8.0498152 7.1407056 -0.47769976
7.5022945 7.1359754 -0.38616639
41.969246 27.963684 1.1930337
9.9306335 6.9572549 0.094281971
8.9657545 7.0254884 0.55006641
8.6027803 7.223465 0.6160686
8.6208162 7.0419393 0.2215423
3.1854265 1.926739 -1.3681723
2.8227644 1.8807054 -1.1944774
2.3766868 1.8716793 -1.0253223
2.6937063 2.0218089 -1.3587513
2.5380914 2.0833066 -1.2873784
1.980688 1.9871589 -0.87602717
2.0144684 1.9423102 -1.0401837
1.8039581 1.8870536 -0.932657
3.0384338 1.8523883 -0.88044143
3.092432 2.0869656 -0.89857227
2.8587456 1.8292941 -1.0000889
2.5288384 1.9000115 -0.88997942
2.5200825 2.0705287 -0.89626801
8.3813171 5.5796409 -1.0260174
8.0497074 5.7240472 -0.9464224
8.1815176 7.2277107 0.29308465
7.6071296 7.1951842 0.35076079
7.4662042 5.8219519 -0.84954542
8.4939384 7.1069651 -0.9518795
7.2791457 5.9129977 -1.1076411
7.6349568 6.9283004 -0.82154155
7.1126537 6.9116631 -0.71865284
8.0724316 7.1282558 -1.248156
7.4667583 7.062921 -1.1155245
9.7253351 6.2711873 -0.79400319
8.332448 6.4915285 -0.21738485
8.5254774 7.1252384 -0.17370726
7.6319599 5.7806044 -0.51727569
8.6485462 7.0318389 -0.56391937
7.9510145 7.2041383 -0.10569227
7.4125333 7.190752 -0.01973689
8.1007185 7.1403856 -0.48012906
7.550735 7.1371222 -0.3882395
41.960144 27.767725 1.1907619
9.9983387 6.9581046 0.093760237
9.0225477 7.0242219 0.55140078
8.5963297 7.1720042 0.61467582
8.6738968 7.0400982 0.22159643
3.2264607 1.937408 -1.385003
2.8486693 1.8852903 -1.204191
2.3751826 1.8585354 -1.0216458
2.7645888 2.0606928 -1.3952941
2.4939983 2.0333605 -1.2580482
1.9721855 1.9665041 -0.86835581
2.0165524 1.9322011 -1.0377924
1.8161941 1.8880738 -0.93656099
3.050837 1.8467615 -0.88268387
3.1085198 2.0837348 -0.90184146
3.2854972 1.8764739 -1.1550814
2.8898995 1.8367323 -1.0104742
2.5485649 1.9021598 -0.89566594
2.5295031 2.0650299 -0.89750278
8.4253426 5.5707326 -1.0299385
8.0773659 5.7056327 -0.94782549
8.2463551 7.2388163 0.29353133
7.572998 7.1176953 0.34967953
7.4986267 5.8093858 -0.85155863
8.546752 7.1057501 -0.95607197
7.3176737 5.9063268 -1.1112826
8.1171761 7.1224141 -1.2522039
7.5350428 7.0830154 -1.1237574
9.5853596 6.1388865 -0.77752113
8.3765488 6.4836092 -0.21859673
8.5861864 7.1304359 -0.17542927
7.7187409 5.8079743 -0.52381361
8.696928 7.0260124 -0.56628078
7.9840288 7.1884646 -0.10610244
7.4623704 7.1938667 -0.02057543
8.1577148 7.1450653 -0.48306972
7.5919929 7.1311846 -0.38973671
41.986992 27.59627 1.1893519
10.036574 6.9380679 0.093573913
9.0825853 7.0251102 0.55285639
8.6003885 7.1296158 0.61379617
8.7115097 7.0254068 0.22162351
3.2054379 1.9113624 -1.3719975
2.7388923 1.7990243 -1.1481518
2.3765748 1.8476784 -1.0194397
2.7225296 2.0166321 -1.3678869
2.5370319 2.0557063 -1.2792312
1.9904474 1.9720608 -0.87463254
2.0239522 1.9271092 -1.0385895
3.0764546 1.848892 -0.88941097
3.3474441 1.897426 -1.1774833
2.8924716 1.8256012 -1.009176
2.554528 1.8941443 -0.89566594
2.5550592 2.0728049 -0.90552902
8.4594193 5.5550904 -1.032389
8.0855122 5.6733594 -0.9464224
8.2766037 7.21943 0.29361111
7.5530348 7.0541792 0.34887552
7.5547166 5.8147917 -0.85692698
7.301815 6.0270238 -0.78250372
8.2821321 6.1978245 -1.2949809
7.4255943 5.9554152 -1.1275291
7.8773761 7.0576434 -0.84834766
8.1769304 7.1293473 -1.2589505
7.6006355 7.1000371 -1.1314757
9.8975525 6.2941332 -0.80770952
8.3968744 6.4572635 -0.21859673
8.6054659 7.1008763 -0.17529148
8.3723288 6.2560134 -0.58417499
8.7639933 7.0349803 -0.57030892
8.0379257 7.1912646 -0.10733286
7.5281439 7.2119937 -0.021899451
8.2042599 7.1403122 -0.48511547
7.6027074 7.0963721 -0.38881534
9.9573317 7.0355115 0.51638603
8.5857887 7.071979 0.61203688
27.073605 20.141983 0.051163111
8.7818289 7.0368867 0.22170743
3.2114265 1.9012835 -1.3719975
2.936197 1.9176258 -1.2408034
2.4134829 1.8638117 -1.0348817
2.9027405 2.1339836 -1.4658883
2.5463045 2.0500398 -1.2808605
1.9858496 1.9553769 -0.86905318
2.059566 1.9482034 -1.0561247
3.3467803 1.8832414 -1.1748478
2.9237158 1.8327751 -1.0195613
2.5389481 1.8705297 -0.88682026
2.5586147 2.0623577 -0.90429413
8.496417 5.5602021 -1.0365552
8.0749159 5.6469407 -0.94361597
8.3166676 7.2312865 0.2939142
7.5714073 7.0491385 0.34901413
8.3760376 6.4225168 -0.97189921
7.8834276 5.8817592 -1.220526
7.9568748 7.1060696 -0.85754979
7.1982908 6.8859553 -0.72277367
8.2165956 7.1411266 -1.2640779
7.6421895 7.11655 -1.1368787
9.9558983 7.0123177 -0.33905157
9.947876 6.3040867 -0.8118735
8.3911161 6.4319482 -0.2177888
8.5857944 7.0618839 -0.17391388
8.4638643 6.3034019 -0.5919292
8.8107967 7.0499578 -0.57350373
8.0581818 7.1865921 -0.10768443
7.5596595 7.2195444 -0.02251734
8.2441673 7.1521993 -0.48754478
7.6430111 7.1116962 -0.39111876
9.8394222 6.9286442 0.51234943
8.6184702 7.0762911 0.6130631
27.073061 20.075632 0.051347721
8.8147087 7.0406094 0.22174533
3.2671461 1.9268544 -1.3972435
2.967057 1.9314344 -1.2542528
2.4045398 1.8510435 -1.0289991
2.7142982 1.9910041 -1.3579208
2.3881667 1.9144243 -1.1879814
1.9794689 1.9431516 -0.86417133
2.0262806 1.9113203 -1.0346043
3.1983616 2.10848 -0.92690462
3.3712273 1.8898416 -1.183413
2.9345751 1.833252 -1.0228066
2.5741956 1.8898592 -0.90008885
2.5927939 2.0836029 -0.91725945
8.5805273 5.5765762 -1.0463578
8.1137857 5.6363301 -0.94665617
8.3727093 7.233808 0.29426515
7.7677946 7.1873665 0.3523134
8.3787518 6.3829627 -0.96943873
7.2978721 5.9660211 -0.77810168
7.8747897 5.8370008 -1.2156008
7.4752393 5.9376578 -1.1314508
8.0104856 7.1086969 -0.86175072
7.2530003 6.8949451 -0.72708172
8.2690506 7.1411095 -1.2694752
7.6746769 7.1019588 -1.1386795
9.9811506 6.9833002 -0.3392317
9.9963379 6.2907767 -0.81482273
8.3953552 6.3934841 -0.21698086
8.637289 7.0589747 -0.17522259
8.5029001 6.2909641 -0.59375381
8.8578453 7.0421634 -0.57572615
8.1167068 7.1929746 -0.10909066
7.5736237 7.1874766 -0.022252539
8.2878065 7.1444554 -0.48933476
7.7282114 7.1460938 -0.3960712
9.964201 6.9701147 0.51556849
78.864044 59.766113 3.2066553
8.6329317 7.0428429 0.61269659
27.174667 20.018911 0.051126178
8.8868265 7.0527802 0.22183195
3.2811885 1.9211937 -1.4010686
3.1514201 2.0392447 -1.3401797
2.4237268 1.8535345 -1.035617
2.7929945 2.0344117 -1.3986163
2.3657892 1.8839104 -1.1716868
1.9801486 1.931738 -0.86138171
2.0201259 1.8937674 -1.0274308
1.9965814 2.0336945 -1.0341625
3.2177927 2.1069407 -0.93126351
3.3920543 1.8874041 -1.189343
2.5862894 1.8861847 -0.9026162
2.5993278 2.0754464 -0.91725945
9.1509209 5.9044828 -1.1274741
8.1575651 5.6289282 -0.95039803
8.4212427 7.2295518 0.29453635
7.7859321 7.158855 0.35223019
8.4082909 6.3637795 -0.97078079
7.9250212 5.8356128 -1.221395
8.0612001 7.1084328 -0.86555159
7.4753318 7.0627117 -0.75311756
8.3215847 7.1408329 -1.2748724
7.7260847 7.1047339 -1.1438253
10.025976 6.9679189 -0.34049293
9.9026928 6.1888433 -0.80319864
8.3829393 5.653255 -0.60574752
8.4233847 6.3730855 -0.21738485
8.5161848 6.2595096 -0.59314561
8.1618185 7.187201 -0.10996953
7.5773015 7.1457648 -0.02167879
8.3481846 7.1507521 -0.49253118
7.7682285 7.138032 -0.39745325
68.514008 43.94109 1.7994989
9.9975281 6.9467864 0.51592618
78.926834 59.424282 3.2019246
8.6906614 7.0447149 0.61438262
8.9246168 7.0372434 0.22185902
3.2743781 1.9035336 -1.3949484
3.1484895 2.0232506 -1.3356965
2.4429526 1.8559232 -1.042235
2.7230937 2.2650907 -1.1930492
2.806782 2.0309036 -1.4027689
2.3830779 1.8856329 -1.1782045
1.9902819 1.9293829 -0.86347395
2.0341892 1.8948371 -1.0322131
2.0080895 2.0326982 -1.0372858
3.2163658 2.0915208 -0.9285391
2.5983851 1.882453 -0.90514344
7.3347688 6.0942583 -1.3214649
9.1727705 5.877841 -1.1279643
8.2079163 5.6258192 -0.95507532
8.4637318 7.2198887 0.29474372
7.7568259 7.0870218 0.35125983
8.4234648 6.3337626 -0.97010964
8.1164875 7.111846 -0.86995268
7.5467215 7.0856586 -0.75948602
8.3787289 7.1441474 -1.2810793
7.6256557 6.9677377 -1.1222136
9.8407116 6.1074533 -0.79487067
10.487249 7.0323124 -0.80948657
8.4337606 6.3394113 -0.21690007
7.5759659 6.108336 -0.1261806
7.7936201 5.6935878 -0.5232054
8.2024469 7.1772804 -0.11067265
7.5909786 7.1137004 -0.02141398
8.4041128 7.1528735 -0.49534398
7.8259211 7.1459932 -0.40021735
8.7500343 7.0475535 0.61614186
9.0079699 7.0574164 0.2219646
3.2048233 1.8503414 -1.358992
3.2856083 2.0980949 -1.3984606
2.490602 1.8792596 -1.0628244
2.7938392 2.0084159 -1.3919721
2.3889892 1.8781372 -1.1782045
2.0004196 1.9269844 -0.86556619
2.0401316 1.8884374 -1.0322131
2.0016029 2.0132041 -1.0294777
2.6151297 1.8819524 -0.90956634
7.3295417 6.0509849 -1.3165998
8.2468557 5.614594 -0.95811552
8.5337591 7.2332416 0.29523826
7.7967787 7.0787945 0.35159254
8.4512978 6.3131971 -0.97122806
7.7101355 6.0073881 -1.1636637
8.1643553 7.1084666 -0.87335348
7.6052556 7.0959673 -0.76416874
8.4329472 7.144618 -1.2867465
7.8291717 7.1095314 -1.1541164
9.863246 6.0785928 -0.79521769
8.4359875 6.299777 -0.21601136
8.7454624 7.0111136 -0.17708234
7.9165816 5.7449293 -0.53308821
7.6076899 5.9272428 -0.45932561
8.2597256 7.1815658 -0.11202028
7.6147485 7.0911856 -0.021458119
8.4616613 7.1559968 -0.4982847
7.8837399 7.1536622 -0.40298146
8.8017263 7.0438275 0.61753464
9.0458508 7.0414047 0.22199166
3.1816466 1.8239268 -1.3452214
2.9864137 1.8909853 -1.2520112
2.7974801 2.0931592 -1.2106264
2.8001347 1.9996293 -1.3919721
2.3905883 1.8672134 -1.1757604
2.0091956 1.9232578 -0.86696094
2.0406072 1.8771027 -1.029025
2.0040464 2.0029657 -1.0271353
2.6505272 1.8944581 -0.9215712
7.359189 6.0367355 -1.3187283
9.2145605 5.8232632 -1.1286993
8.2907314 5.6065307 -0.96185726
8.5932236 7.2372332 0.29562113
7.8574963 7.089191 0.3523134
8.4519014 6.2724519 -0.96854395
7.70084 5.9612436 -1.1586217
8.2168074 7.1087513 -0.87735438
7.6712132 7.1127658 -0.76978803
8.4750957 7.1346359 -1.2902547
7.8881974 7.1182098 -1.1605484
9.8822927 6.0475783 -0.79521769
10.212435 6.7544618 -0.77848977
8.4750309 6.2874861 -0.21698086
8.8782425 7.0722818 -0.18197279
10.683427 7.6905808 -0.79095471
7.6215487 5.8996377 -0.45890886
8.2867918 7.159493 -0.11219606
7.7658319 7.1870613 -0.025341909
8.5147219 7.1549892 -0.5008418
7.9268889 7.1476312 -0.40459388
77.388947 57.132504 3.1229568
8.8675337 7.0510736 0.61958718
3.2276726 1.8364875 -1.3643471
3.1783595 2.000483 -1.3409269
2.8265553 2.1008372 -1.2216563
2.8078945 1.9918644 -1.3928025
2.420809 1.8789403 -1.1896108
2.0165977 1.9182159 -0.86765844
2.0533214 1.8768073 -1.0330101
1.9960896 1.9822561 -1.0185462
2.776274 1.969758 -0.97022277
9.24123 5.7995396 -1.1299247
8.3132439 5.5837908 -0.96255893
8.6113091 7.206358 0.29557326
7.9094453 7.0912409 0.35286787
8.4779778 6.2505684 -0.96943873
7.6756697 5.9030986 -1.1507785
8.257247 7.0984244 -0.8797549
7.7417364 7.1332736 -0.77596921
8.5264063 7.1320629 -1.295382
7.9547262 7.133224 -1.1682668
9.9182949 6.0268083 -0.79695266
10.210313 6.7069712 -0.77622962
8.4850731 6.2537374 -0.21649612
8.8941612 7.0393772 -0.18169726
10.746522 7.6847396 -0.79460371
7.6621423 5.8927507 -0.46085352
8.3518028 7.1697817 -0.11383662
7.8368316 7.2074122 -0.026798351
8.5601864 7.1473379 -0.5027597
7.9819503 7.1520834 -0.40712762
8.919385 7.0467873 0.62097991
34.613255 26.688059 0.265634
3.2398877 1.8299276 -1.3674072
3.2143888 2.0093758 -1.3551235
2.8842897 2.1291327 -1.2466577
2.8126435 1.9819959 -1.3919721
2.4267004 1.8713254 -1.1896108
2.0267367 1.9156948 -0.86975056
2.0605772 1.8715675 -1.0338073
2.016592 1.9903343 -1.0271353
9.2442217 5.7610641 -1.127719
8.3835297 5.5930548 -0.97004253
8.6061745 7.1563139 0.29528612
7.9525447 7.0850306 0.35325602
8.0397844 5.8903337 -0.90568942
7.6376481 5.8355188 -1.1406945
7.62784 6.9835243 -0.75854951
8.547246 7.1039762 -1.2951123
7.9874415 7.1174569 -1.1700678
9.9815979 6.0222788 -0.80146354
10.243005 6.682507 -0.77735972
8.5062952 6.2282233 -0.21657689
8.9789696 7.0609636 -0.18445243
10.775497 7.6543922 -0.7950598
7.5667086 5.7811241 -0.45085245
8.4078159 7.1719704 -0.11512569
7.8844743 7.2057467 -0.027548639
8.6072235 7.140739 -0.50480539
8.0177746 7.1389523 -0.4081642
8.9775763 7.0471959 0.62266594
3.3928697 1.9009508 -1.4370252
3.1453531 1.951784 -1.3192583
2.9331827 2.1505518 -1.267247
2.8128631 1.9690211 -1.3886501
2.4455318 1.8737996 -1.1969433
2.0368805 1.9131293 -0.8718428
2.066447 1.8650839 -1.0338073
1.9850585 1.9462506 -1.0044917
9.3535547 5.7881837 -1.1409526
8.4308119 5.5865159 -0.97425193
8.606987 7.1114597 0.29506278
7.9986677 7.0812807 0.35369962
8.0083418 5.8289237 -0.89875537
8.3702221 5.9220877 -1.2816544
7.6874242 5.8355289 -1.1462967
7.615941 6.9286222 -0.75424141
8.5679893 7.0758319 -1.2948424
8.0423584 7.1213355 -1.1757278
9.9713707 5.9735503 -0.79851407
8.3470478 6.5192928 -0.15579866
10.07014 7.107995 -0.7270962
8.4669781 7.1764588 -0.11653188
7.9307022 7.2025084 -0.028254781
8.6419582 7.1237926 -0.50582826
8.0700045 7.140264 -0.41046768
75.052368 46.158939 1.9310616
9.0169754 7.0325189 0.62347221
9.9357367 7.0079937 0.15079044
34.910706 26.569448 0.26585597
3.4425888 1.9142413 -1.4576809
3.1782024 1.9586264 -1.3319606
2.9097002 2.1196418 -1.2525403
2.8174577 2.2557395 -1.2188976
2.8250415 1.9642843 -1.3919721
2.4672899 1.8784124 -1.2059053
2.0442622 1.9079874 -0.8725403
1.9684292 1.9948823 -0.84513855
2.0667882 1.8537356 -1.0306189
2.0120702 1.9607605 -1.0169847
9.4004822 5.7763691 -1.1451186
8.4831038 5.583025 -0.97916311
8.5983114 7.0590792 0.29474372
8.2111549 7.2243371 0.35722065
7.9991822 5.7840118 -0.89495283
7.7041402 5.810154 -1.1460167
8.3999929 7.0842552 -0.88975728
8.0973787 7.1249399 -1.1813879
10.014093 5.9564042 -0.80094308
10.010236 6.4405265 -0.75088328
8.3611822 6.488122 -0.15552317
10.010657 7.0192547 -0.71949399
7.5965228 5.7286482 -0.45029694
8.5139952 7.170373 -0.11746937
7.9651389 7.1883054 -0.028607881
8.7091579 7.133183 -0.50953609
8.126811 7.1452827 -0.41311657
41.924454 27.882305 1.4915513
9.0800266 7.0360808 0.62537813
9.8707609 6.9161091 0.15127966
3.7765703 2.0816314 -1.6122173
3.2316084 1.9780128 -1.3543763
2.9011986 2.0996962 -1.245187
2.7954817 2.2234263 -1.2045374
2.8357127 1.958468 -1.3944637
2.6468742 2.0043356 -1.303673
1.9825648 1.9967718 -0.84921288
2.0850282 1.8581021 -1.0377924
2.0260849 1.9621887 -1.0216696
6.3384776 3.3432083 -1.5093676
9.7766209 5.964108 -1.1968272
8.5022621 5.557436 -0.979397
8.6592636 7.0635428 0.29514253
8.2578516 7.2196198 0.35766426
7.9882054 5.7380576 -0.89092654
7.7603149 5.8145204 -1.1527393
8.4267931 7.0616522 -0.89035738
7.948997 7.14218 -0.79095387
7.3242807 5.9767194 -1.0689665
8.1420746 7.1191006 -1.1852472
10.053373 5.9370236 -0.80302507
10.0321 6.4101224 -0.75104481
8.7922983 6.3103628 -0.22788779
8.3799458 6.4605961 -0.15545429
10.040856 6.9934492 -0.72025418
7.6479473 5.7299662 -0.45321387
8.5625954 7.1653376 -0.11846542
8.0292749 7.2007241 -0.02984361
8.7051592 7.0844288 -0.50736254
8.1672268 7.1355224 -0.41449869
74.484138 45.167248 1.9114387
42.053543 27.778019 1.4928286
9.9927263 6.9545393 0.15071659
3.8757999 2.1197529 -1.6558243
3.2014973 1.9454392 -1.337191
2.9108174 2.09272 -1.2466577
2.7951727 2.208792 -1.2009473
2.8433599 1.9505668 -1.3952941
2.5864148 1.9449739 -1.2661954
1.9914631 1.9932191 -0.85057116
2.0963938 1.8563551 -1.0409807
2.0401289 1.9635472 -1.0263544
6.324739 3.3107154 -1.5030421
9.7647066 5.9149251 -1.1924162
9.1683435 5.9541554 -1.0706034
8.6845236 7.0388165 0.29517445
8.3136349 7.2225752 0.35827422
8.0191584 5.7221355 -0.89271599
8.6048546 5.9665318 -1.3135222
7.7959809 5.8031669 -1.1558206
8.4841776 7.0643487 -0.8949585
7.9965906 7.1397805 -0.79413807
7.330677 5.9437313 -1.0668076
8.1957731 7.1208806 -1.1906502
10.058207 5.8973813 -0.80163711
9.9614191 6.3207006 -0.74232692
8.3986149 6.4330201 -0.15538539
10.080841 6.9743147 -0.72192669
7.6802835 5.7166729 -0.45446396
8.6158648 7.1638947 -0.11963728
8.0846252 7.2048111 -0.030814569
8.763135 7.0858288 -0.51030326
8.2242079 7.1400204 -0.41714764
74.543419 44.883564 1.9095588
33.523514 21.348518 -0.16304173
24.957352 19.146502 1.3577553
10.027705 6.9321833 0.15064275
3.9019902 2.1180313 -1.6650047
3.3357141 2.013895 -1.3977133
2.9432399 2.1017547 -1.2591584
2.6663396 2.0918021 -1.1341724
2.8388948 1.9345329 -1.3894805
2.6783233 2.0020292 -1.3142645
1.9871427 1.9762422 -0.84513855
2.1077681 1.8545556 -1.0441689
2.0410116 1.9519892 -1.0232311
3.0550597 1.8638618 -0.85552913
6.2502298 3.2471321 -1.4809027
9.7440634 5.8607793 -1.1867796
8.7393637 7.0377674 0.29550946
8.358943 7.2160783 0.35869008
8.0078545 5.6763048 -0.8886897
8.3665962 6.3742061 -0.8931849
8.6170244 5.9349966 -1.3123633
7.8173509 5.7810116 -1.1563808
8.5554867 7.0781384 -0.90135992
8.0516768 7.1437769 -0.7982589
7.3493133 5.9206734 -1.0668076
8.2435722 7.1171951 -1.195024
10.080132 5.8677516 -0.80198413
9.9980688 6.3000417 -0.74394137
8.4156075 6.4041753 -0.15524764
11.169266 7.6722341 -0.82045114
8.6275177 7.1279058 -0.11922714
8.1311188 7.2006464 -0.031520721
8.8165283 7.0831938 -0.51286042
8.2737541 7.137691 -0.41922069
33.49411 21.182106 -0.16197966
9.954092 7.0435429 0.57444829
3.8808815 2.0910258 -1.651999
3.2485216 1.9465042 -1.353629
2.9345808 2.081847 -1.2518051
2.7533853 2.1471517 -1.1736631
2.8298144 1.9155213 -1.3811753
2.7443731 2.0387194 -1.3476685
1.9761069 1.9526389 -0.83631063
2.1219358 1.8550923 -1.0489511
2.0563941 1.9545326 -1.0286969
3.0707316 1.8603096 -0.85879821
6.2378449 3.2159588 -1.4750289
9.7573071 5.8270988 -1.1860445
8.8097725 5.6415854 -1.015178
8.8036709 7.0439162 0.29594019
8.4148951 7.2185073 0.35930002
8.4498949 6.3960643 -0.90156984
8.4147615 5.7576013 -1.2732527
7.8928123 5.7987871 -1.1664649
7.1761031 5.9045596 -0.71931803
8.0934544 7.135613 -0.80069387
7.4376493 5.9530911 -1.0789515
8.2914267 7.1132784 -1.1993976
10.122695 5.8499613 -0.80441302
10.12244 6.3343935 -0.75395072
9.9695625 7.0098929 -0.28306872
8.4245434 6.3692427 -0.15476547
8.6158094 7.0729413 -0.1179381
8.1851549 7.2028823 -0.03244755
8.8762398 7.0852609 -0.51592892
8.3203411 7.132514 -0.42106348
74.882408 44.449024 1.9108903
33.612968 21.109797 -0.16255729
9.9303064 6.9801474 0.57275003
3.9005082 2.0857184 -1.6581194
3.1577637 1.8777626 -1.3080505
2.9670827 2.0906441 -1.2643057
2.7821224 2.1558044 -1.1844332
2.8069837 1.8875535 -1.3653953
2.7653775 2.0410457 -1.3558158
2.3038876 2.0797122 -0.98691469
1.9848908 1.9490829 -0.8376689
2.1389196 1.8579386 -1.0553278
2.0651779 1.9506165 -1.0302585
3.0699933 1.8466386 -0.85661882
4.077352 2.0662827 -1.4298327
6.2600803 3.2025137 -1.4781917
9.7937765 5.8279438 -1.1899655
8.8386841 5.640614 -1.0179844
8.8413534 7.0512171 0.29621136
8.4580765 7.2326484 0.35988224
8.0426607 5.644196 -0.88980812
8.4520063 6.3767753 -0.90052164
8.4221563 5.7432671 -1.272963
7.8971267 5.7828603 -1.1656246
8.6766472 7.1094322 -0.91276252
8.1449499 7.1584802 -0.8057512
7.5121951 5.9931326 -1.0902858
8.3311701 7.1248059 -1.2042859
10.150889 5.8449492 -0.80632144
10.189809 6.3544765 -0.75943971
9.9690886 6.9862213 -0.28250319
8.4313507 6.3535881 -0.15462773
7.7586799 5.6810241 -0.45738089
8.6656599 7.09096 -0.11940292
8.2144585 7.205883 -0.032977149
8.366375 7.1493521 -0.42371237
75.051971 44.390362 1.9131621
68.475983 44.17654 2.28737
9.924861 6.953105 0.57214355
3.9152315 2.0856037 -1.6634746
3.7201478 2.2096534 -1.5710616
3.0330806 2.1293583 -1.2944545
2.8060694 2.1675596 -1.1944854
2.8281748 1.8951572 -1.3753617
2.8095458 2.0673163 -1.3786283
2.0065973 1.9645609 -0.84717572
2.1683905 1.8771478 -1.0704718
2.0775418 1.9562913 -1.0357242
3.4350207 1.8474044 -0.98022842
3.0926101 1.8538296 -0.86315709
4.0349469 2.0371587 -1.4120431
4.0059438 2.0519197 -0.89127064
9.8342886 5.8102155 -1.1931512
9.2734604 5.878602 -1.0762161
8.8917322 7.0456924 0.29649854
8.5157442 7.2359004 0.36051992
8.0619907 5.6200275 -0.89003187
8.4592953 6.340611 -0.89884472
8.4401627 5.7167735 -1.272963
7.993576 5.8153076 -1.1793503
7.3337255 5.9759088 -0.73612189
8.1883574 7.151238 -0.80837345
7.5107574 5.9535494 -1.0867776
8.3867016 7.1269264 -1.2099462
10.162279 5.8090825 -0.80562752
10.208035 6.321372 -0.7592783
10.007418 6.9662428 -0.28331113
8.4416924 6.3198528 -0.15421446
8.5913019 6.2526808 -0.52766573
8.7081022 7.0800433 -0.12016463
8.2761688 7.2142873 -0.034124639
7.6248751 6.0325437 -0.41121423
8.4131031 7.1437631 -0.42555517
68.425957 43.840282 2.2816474
9.974597 6.9412365 0.5731746
3.9119337 2.068166 -1.6588844
3.6076496 2.1265545 -1.5150223
3.0014312 2.093488 -1.2760711
2.8325939 1.8852644 -1.3745311
2.8805542 2.1063871 -1.4144764
2.003408 1.948976 -0.84242225
2.3088129 1.9839458 -1.146989
2.8634586 2.6928546 -1.4924996
3.5053949 1.8705242 -1.0015311
3.1165316 1.8550595 -0.86915046
4.0514884 2.0294864 -1.4159963
3.2841969 1.851965 -1.1292552
2.5933826 1.8952805 -0.88021576
3.960115 2.0131402 -0.87771595
9.8490629 5.7772923 -1.1926612
9.2985954 5.8536901 -1.0771515
8.9594736 7.0534964 0.29696113
8.541482 7.2116995 0.36057538
8.0877914 5.6003094 -0.8911503
8.5046511 6.333075 -0.90219867
8.4876842 5.7100382 -1.2781777
8.0085993 5.7878385 -1.1787899
7.3075099 5.9166498 -0.73032051
8.2362938 7.1477275 -0.81155777
7.6916814 6.057003 -1.1148434
8.4377842 7.1249256 -1.2148345
10.209974 5.7937818 -0.808577
10.075217 6.1949649 -0.74474859
10.037481 6.9404364 -0.28371507
8.4599028 6.2921047 -0.15414558
8.7238789 6.3077664 -0.53738892
8.764576 7.0802107 -0.12145364
8.3289557 7.2145066 -0.035007332
7.5950418 5.9704528 -0.40725064
8.4827166 7.1573253 -0.42912555
3.9299006 2.0618091 -1.6642396
3.8536067 2.2572556 -1.6271009
2.9634397 2.0536466 -1.2547464
2.5096602 1.9099236 -1.0437033
2.8476548 1.8823066 -1.3795143
2.7989624 2.0322733 -1.3655926
2.025604 1.9585135 -0.85057116
2.5440662 2.1688831 -1.2769086
2.4694848 2.3027604 -1.257475
3.507849 1.8577284 -1.0004101
3.1272926 1.8482327 -0.87078494
4.0510607 2.0134258 -1.413361
3.2998643 1.8472512 -1.1331496
2.5947325 1.8837341 -0.87836349
3.9245479 1.979876 -0.86687219
9.8826208 5.7552795 -1.1948668
9.3337555 5.8350201 -1.0794902
9.0021019 7.0412889 0.29716852
8.6038504 7.2183428 0.36129621
8.143075 5.6006799 -0.89629489
8.5005608 6.2885246 -0.89905429
8.5418396 5.7074428 -1.2845513
8.026742 5.7626514 -1.1787899
7.3478169 5.9110684 -0.73312128
8.2963285 7.1544189 -0.81624055
7.712234 6.0340276 -1.1151133
8.4919691 7.1252303 -1.2202373
10.030061 6.1236677 -0.73861378
8.4780216 6.264307 -0.15407671
8.8305082 7.0875797 -0.12309423
8.3818264 7.2144661 -0.035890009
8.5357008 7.1563706 -0.43142897
3.9478667 2.0553598 -1.669595
3.8846521 2.259268 -1.6383088
2.9883518 2.0568495 -1.2635704
2.4919734 1.8838222 -1.0322151
2.8657815 1.8812469 -1.3861585
2.8171194 2.0321078 -1.3721105
2.1128783 1.8687 -0.88160652
2.034435 1.954772 -0.85192919
2.5832691 2.1878996 -1.2952409
2.4793885 2.2975152 -1.2590367
3.5392456 1.8599298 -1.008819
3.152916 1.8502287 -0.87732321
4.0726509 2.0081184 -1.4192907
3.3254178 1.8480386 -1.1409385
2.6006374 1.8755739 -0.87836349
3.9517164 1.9778788 -0.87229395
9.8868866 5.716289 -1.1929063
9.8474512 6.1148396 -1.1482457
9.0653086 7.0447888 0.29758328
8.5820246 7.1540413 0.3604922
8.168848 5.5806551 -0.89741331
8.5762434 5.6914821 -1.2874484
8.0287132 5.7258677 -1.1759888
7.4021797 5.9164352 -0.73772228
7.7389903 6.015831 -1.1164626
8.5508003 7.1290865 -1.2264121
10.027118 6.0786452 -0.73651505
8.481575 6.2257762 -0.15338789
8.8762188 7.0784483 -0.12397313
8.4332619 7.2128606 -0.036728561
8.5857 7.1525888 -0.43350202
76.125351 47.770634 2.5016153
3.9296038 2.030369 -1.6581194
3.776443 2.179595 -1.584511
2.9377124 2.009021 -1.2363632
2.5112281 1.8861848 -1.0386772
2.8732088 1.8732171 -1.3869889
2.7393174 1.961974 -1.3256708
2.1158996 1.8596045 -0.88021165
2.032475 1.940502 -0.84785485
2.5703547 2.1633894 -1.2840822
2.4327989 2.2394094 -1.2278041
3.5467787 1.8496789 -1.0093795
3.1653357 1.844237 -0.87950259
4.0670323 1.9895744 -1.4146786
3.339458 1.8422081 -1.1441839
3.2971411 2.14501 -1.1465051
2.6065164 1.8673948 -0.87836349
3.9509106 1.9620299 -0.87048674
9.9358244 5.7029128 -1.1973175
9.4681606 5.8369441 -1.0930542
9.1127701 7.0357699 0.29783854
8.5952368 7.1193666 0.36032584
8.2357655 5.5883102 -0.90412372
8.0187645 5.8525357 -0.83092678
8.6056681 5.6721029 -1.2894764
8.1111784 5.7465744 -1.1871934
7.4347878 5.9042478 -0.73952264
7.2093806 6.1338754 -0.67613387
7.6258373 5.8900857 -1.093794
8.5990705 7.1237564 -1.2307858
10.054695 6.0522709 -0.73732227
8.9423676 7.085187 -0.12561372
8.4847727 7.2109985 -0.03756709
7.6256304 5.879178 -0.40520501
8.6219463 7.1370697 -0.4345386
35.222031 20.108463 0.99962592
75.754227 47.206455 2.4859288
9.9781075 7.0637789 0.22302303
3.9491575 2.0246797 -1.6642396
3.2266328 1.8443546 -1.3252358
2.9378254 1.9956458 -1.2334217
2.527549 1.8861865 -1.0437033
2.9466057 1.9071801 -1.4235319
2.7543488 1.9597796 -1.3305591
2.1288478 1.8590471 -0.88369876
2.0547934 1.9497947 -0.85600352
2.5502322 2.1331518 -1.2689382
2.4452178 2.2367682 -1.2309273
3.5731015 1.848982 -1.0161067
4.0868921 1.9833043 -1.4199497
3.3667192 1.8436649 -1.152622
3.307065 2.1366787 -1.1477687
2.6293206 1.8714676 -0.88515484
6.2766066 3.2524714 -1.113848
3.9412808 1.94195 -0.86642027
10.02622 5.7127757 -1.2076101
9.9888706 6.1163402 -1.1625113
8.5728693 7.0553684 0.35952181
8.0515776 5.8378577 -0.83281326
8.6532993 5.6644707 -1.2946912
8.1469746 5.7336464 -1.1902746
7.4063334 5.8440089 -0.73352134
7.1785536 6.0686321 -0.66995269
7.630127 5.855278 -1.0913652
8.6565638 7.1257777 -1.2367032
10.0429 6.0021734 -0.73441631
8.6061668 6.2347169 -0.15703849
9.9675217 6.5102878 -0.69501495
9.9522438 7.0113459 -0.6354543
8.994483 7.0804834 -0.12672698
8.537879 7.2101774 -0.038449779
7.6377134 5.8503528 -0.40469354
8.6427879 7.1086736 -0.43442345
39.247654 22.240156 1.0888097
75.393913 46.653492 2.4706511
9.887537 6.9527726 0.22283626
3.9340248 2.0014951 -1.6542941
3.8832746 2.209579 -1.6278481
2.8495696 1.9236398 -1.1885664
2.5409138 1.8838561 -1.0472932
2.9218287 1.878464 -1.4069215
2.845047 2.0118599 -1.3769988
2.1289699 1.8474874 -0.88090914
2.0975423 1.9785129 -0.87433827
2.5711198 2.1367428 -1.2769086
2.4901104 2.2640514 -1.2527901
3.3708394 1.8321632 -1.151973
2.6320989 1.860976 -0.88392007
6.2710061 3.2246895 -1.1106861
3.8525708 1.8839144 -0.8420217
9.7995605 5.9575438 -1.1337461
34.91568 26.517355 0.55572873
8.6228037 7.0512552 0.36002088
8.3236599 5.5716929 -0.91128153
8.0328274 5.7857037 -0.82799196
8.2556677 5.7718005 -1.205961
8.5316057 7.1729555 -0.83422208
7.6500626 5.8324771 -1.0916351
10.09766 5.9920378 -0.73780656
8.7585096 6.3037162 -0.1626866
10.009706 6.4930048 -0.69699156
9.9513693 6.9639845 -0.6335097
8.3699083 6.5486979 -0.10270405
8.5727167 7.1936326 -0.038802881
7.6990261 5.85885 -0.40814567
8.6820507 7.0954256 -0.43569028
39.244106 22.075619 1.0871646
75.054703 46.117966 2.4560888
29.974899 16.354868 -0.34908479
9.9535332 6.9526944 0.22290933
3.9369838 1.9874811 -1.6527641
3.9336658 2.2222574 -1.6480222
2.5572765 1.8837 -1.0523193
2.9354191 1.874114 -1.411074
2.7874227 1.957289 -1.3419654
2.1404867 1.8456343 -0.88369876
2.2275848 2.090107 -0.93613303
2.6077123 2.1529512 -1.2936469
2.5026371 2.2611976 -1.2559134
4.0102587 2.0399034 -1.1551358
3.0758584 2.0566339 -0.8600539
2.6487668 1.8604393 -0.88824189
6.2723198 3.200532 -1.1089294
3.8039708 1.8457714 -0.82801509
9.7486038 5.8844862 -1.1241579
48.840038 36.838242 0.69397426
8.643362 7.0228686 0.35999316
8.4074383 5.5893593 -0.92022878
8.0315886 5.7464995 -0.82547653
8.4101419 5.8410735 -1.2294905
8.593751 7.1794028 -0.83909202
7.7000055 5.8322616 -1.0970324
7.3599792 5.9761243 -1.0120978
10.138732 5.9734917 -0.7399053
9.9679356 6.4217029 -0.69136584
9.9895554 6.9441109 -0.63489872
8.3904381 6.5223722 -0.10270405
8.6029377 7.1730862 -0.039023519
7.5950346 6.1630907 -0.35311204
37.002724 20.663792 1.0353464
66.09536 40.323666 2.1834922
30.151033 16.328142 -0.35140026
42.105988 27.848915 1.7361032
9.9982958 6.9374022 0.22294724
3.7148271 2.0815475 -1.5434157
2.7900319 1.8588157 -1.154741
2.5766573 1.8856893 -1.0587814
2.9243102 1.8542933 -1.4019383
2.7801471 1.939016 -1.3346329
2.1563163 1.8473461 -0.88858062
2.2723577 2.1193461 -0.95514691
2.5217025 2.069839 -1.2418383
2.5083675 2.252084 -1.2551326
4.0200849 2.0290055 -1.1562569
3.1032851 2.0606833 -0.86694396
2.6701117 1.8631191 -0.89441586
6.2612247 3.1702175 -1.1047137
3.8555272 1.8555012 -0.83976257
9.7483292 5.8425527 -1.1215854
49.070805 36.770908 0.69512284
8.697999 7.0221334 0.36057538
8.4747972 5.5956416 -0.92693919
8.2950239 5.7220712 -1.2065212
8.5566273 7.1026278 -0.83178699
7.776998 5.8519697 -1.1070173
7.3740988 5.9492216 -1.0113261
9.9174118 6.3453693 -0.68498003
10.039192 6.9320221 -0.63726002
8.4124746 6.4971962 -0.10276267
8.6300421 7.149859 -0.039155949
8.7714424 7.077199 -0.43903029
37.882725 20.998695 1.0535984
74.604401 45.197708 2.4340155
30.23214 16.249403 -0.35195464
42.188263 27.713196 1.7359211
9.920352 7.0367885 0.65015483
33.463726 21.320023 0.02377552
3.9507825 2.1993206 -1.6495167
2.8317153 1.8733695 -1.1716537
2.6065826 1.8953432 -1.0702696
2.9022784 1.8278538 -1.3869889
2.781745 1.9271164 -1.3321887
2.166425 1.8441679 -0.89067274
2.5453613 2.0756814 -1.2514031
3.97135 1.9891739 -1.1383177
3.1065097 2.0488222 -0.86588395
2.6977193 1.8700664 -0.90305936
6.2588162 3.1443887 -1.1022545
3.8719184 1.8483506 -0.84247351
9.758111 5.8068027 -1.120416
49.070538 36.530643 0.69397426
8.7573853 7.0248942 0.36124074
8.5922194 5.6341286 -0.94036013
8.3080673 5.6926146 -1.2056808
7.5345154 5.7927823 -0.74052292
8.6432905 7.1290774 -0.83965397
7.773078 5.8109589 -1.1032392
7.3912077 5.9247832 -1.0110688
10.146796 5.8925862 -0.7371608
9.9555969 7.0279269 -0.2107643
9.9153852 6.3003287 -0.68300354
8.4217205 6.4622445 -0.1023525
8.6262665 7.1010489 -0.038405661
8.2876463 6.182086 -0.45072198
37.12307 20.426077 1.0351506
9.8934669 6.9709482 0.64795566
33.486572 21.187023 0.02401552
3.939868 2.1769269 -1.6412976
2.8422732 1.8674929 -1.1738598
2.8532145 2.0639801 -1.1851513
2.9157555 1.8234932 -1.3911415
2.7892816 1.9194152 -1.3330034
2.167881 1.833761 -0.88858062
2.6092412 2.1134138 -1.2832853
2.1420712 1.893764 -1.0380666
3.9758558 1.9758446 -1.1377571
3.1161714 2.0411444 -0.86694396
3.0347149 1.8966111 -1.0283517
2.6973476 1.8572178 -0.90058982
6.2563052 3.1186092 -1.0997952
3.8847694 1.8394711 -0.84428084
9.7797213 5.7781491 -1.1208838
49.22044 36.402454 0.69432521
8.8075085 7.0198493 0.36173981
9.1436882 5.9528284 -1.0119381
8.358593 5.6888561 -1.2112831
7.6192331 5.8196368 -0.74892491
8.6933126 7.1246724 -0.84302557
7.8104234 5.8006396 -1.1064776
7.4809937 5.9585714 -1.0229037
10.161808 5.8586831 -0.73683792
9.9580154 6.9828043 -0.20993774
9.9841042 6.2999029 -0.68741274
8.43083 6.4273 -0.10194236
8.6809711 7.1005759 -0.039332461
8.4757147 6.2803736 -0.46414697
7.6496644 6.0887423 -0.35288173
38.13504 20.826336 1.0563009
65.250534 38.968639 2.1471119
9.8417444 6.8881044 0.64465702
33.600403 21.111486 0.023757059
3.5478156 1.9427736 -1.4574887
2.8199492 1.840474 -1.1606237
2.9591975 2.1276383 -1.2325399
2.9199162 1.8133762 -1.3903109
2.7892981 1.9064745 -1.3297445
2.1823061 1.8340993 -0.89276499
2.5324705 2.0391476 -1.237056
2.1466372 1.8857975 -1.0372858
3.9872234 1.9658614 -1.1394389
3.1631644 2.0573525 -0.88019454
3.0374188 1.8850907 -1.0270879
6.2536945 3.0928762 -1.0973359
3.9135187 1.8378865 -0.85015464
9.8286209 5.7655587 -1.1250932
49.334549 36.247654 0.69432521
8.8623791 7.0182948 0.36232203
8.3993511 5.6781559 -1.2152047
8.3967676 6.3686204 -0.84454679
8.7187328 7.0998507 -0.84340024
7.8190198 5.7690411 -1.1048584
7.4872599 5.9251609 -1.0208457
6.2727585 3.3151455 -0.40415627
10.200897 5.8386607 -0.73877525
9.9782658 6.9503431 -0.20986886
10.123992 6.3434248 -0.69820786
8.4557695 6.4043941 -0.10211816
8.693943 7.0656819 -0.039067671
8.4567547 6.2254148 -0.46107835
7.573422 5.9888773 -0.34585625
37.310459 20.224798 1.0364823
68.46788 44.039135 2.6743793
9.9845877 6.9418416 0.65008146
3.9372244 2.1431663 -1.6338255
2.8508132 1.8475996 -1.172389
2.9462206 2.1040874 -1.2232058
3.0593965 1.8853165 -1.4617358
2.814815 1.911191 -1.340336
2.1953056 1.8331763 -0.89625198
2.5849905 2.0674839 -1.2625618
2.1594312 1.8851621 -1.0411899
3.977814 1.9458252 -1.1343935
3.0855143 1.901118 -1.0435157
2.59795 2.0600951 -0.87831491
6.2562962 3.069773 -1.0959307
3.9653194 1.8466959 -0.86190212
9.8586864 5.7416744 -1.1267304
49.467583 36.106617 0.6945166
8.9157619 7.0152197 0.36287653
8.6918344 5.5828567 -0.94662315
8.4171495 5.6517382 -1.2152047
8.4071827 6.3350458 -0.84334648
7.4091458 5.9897037 -0.6819405
7.8178892 5.7304392 -1.10162
7.5276203 5.9188299 -1.0244474
6.1912141 3.2476346 -0.39513445
10.239964 5.8184462 -0.74071252
10.01975 6.9326477 -0.21069545
10.213387 6.3546281 -0.70444167
8.4726496 6.3753991 -0.10200098
8.7424946 7.0597491 -0.03981794
8.5295334 6.2375631 -0.46529764
7.6376357 6.000948 -0.34919626
37.460129 20.153843 1.0384015
35.337368 20.156694 -0.17178072
68.551994 43.789383 2.6724386
10.024413 6.9229698 0.65088785
3.9585822 2.1388073 -1.6405505
2.913182 1.8744406 -1.198861
2.9316118 2.0795465 -1.2131536
3.1385655 1.9197985 -1.5007702
2.8449099 1.9188628 -1.3533717
2.2243083 1.84521 -0.90741044
2.601588 2.0672612 -1.2681412
2.1791422 1.8905594 -1.048998
3.9925685 1.9374579 -1.1371965
3.0800922 1.8845638 -1.0390929
2.6194925 2.0636153 -0.88429719
6.2694573 3.0518112 -1.0966334
3.9977052 1.8463249 -0.8686794
6.3511386 3.3191545 -1.4729593
9.8934307 5.7411909 -1.1302383
8.9676113 7.0333843 0.36359739
9.1951914 5.8840284 -1.0126092
8.449008 6.3456516 -0.84734738
7.4015293 5.9642649 -0.67988002
7.8525362 5.7367854 -1.105938
7.6490664 5.9953895 -1.0429716
6.1821547 3.2305734 -0.3937465
10.367616 6.4275837 -0.71736538
8.4698381 6.3525147 -0.10153222
8.8017721 7.0849824 -0.041186109
7.6611719 6.0000582 -0.35023278
37.978336 20.355381 1.0492116
35.770489 20.329672 -0.17608497
3.9130838 2.1059227 -1.6181346
3.0451243 1.9512184 -1.2591584
2.9318428 2.0727606 -1.2117176
3.0869706 1.8821074 -1.471702
2.8690348 1.9288164 -1.3647779
2.2272046 1.8417128 -0.90741044
2.5961523 2.0564055 -1.2633588
2.1807282 1.885916 -1.0482173
4.0008078 1.9336584 -1.1388783
3.0944397 1.886555 -1.0435157
2.6348126 2.0688322 -0.88908321
6.3026428 3.0555952 -1.1022545
4.0289989 1.8529 -0.87590861
6.1888475 3.2211964 -1.4300576
6.1955929 3.3257449 -0.65106899
10.146897 5.8464599 -1.1622775
9.0258789 7.0335336 0.36423504
9.2237091 5.8614855 -1.0139513
8.5968075 5.7143435 -1.2412553
8.4321508 6.2917976 -0.84274638
7.4171276 5.9384875 -0.67950547
7.9364033 5.7596364 -1.1170022
7.5273204 5.861279 -1.0198164
6.1550565 3.1920135 -0.39010304
10.289132 6.3345556 -0.70854688
8.4833269 6.3211141 -0.10129786
8.839571 7.0698223 -0.041627452
7.7960553 5.6478391 -0.40507716
7.6674027 5.9661193 -0.34931141
37.59531 19.998665 1.0393023
35.769753 20.180801 -0.1753955
76.592888 48.415497 2.9536183
42.200184 28.12084 0.27511394
3.9017363 2.0839007 -1.6099156
2.9613905 1.8853717 -1.2172445
2.9580967 2.07763 -1.2210517
3.0897415 1.8705391 -1.470041
2.8705459 1.9167172 -1.3623337
2.6606119 2.0931623 -1.2952409
2.1907985 1.8826945 -1.0505596
4.0207496 1.9276397 -1.1433631
3.1313272 1.895274 -1.0555207
2.6352437 2.0558963 -0.88669032
6.9681139 3.348237 -1.2318904
4.0952287 1.8673685 -0.89127064
6.2819581 3.2450123 -1.4512873
6.1831918 3.2942171 -0.64788318
10.309857 5.8977184 -1.1819218
9.0810776 7.0309296 0.36481726
9.2420769 5.8324814 -1.0139513
8.609767 5.6840239 -1.240415
7.4077587 5.8927679 -0.67613387
7.9737844 5.7485323 -1.1202407
7.5738735 5.8595257 -1.0244474
6.1526289 3.1663265 -0.38888854
10.061945 6.1519113 -0.68650043
8.5047512 6.2956185 -0.10135645
8.9226761 7.0906734 -0.043348681
8.3797216 6.4811974 -0.39998704
37.412071 19.750849 1.0338581
35.730061 20.010609 -0.17429616
76.311081 47.902695 2.9380915
42.079914 27.850048 0.27477556
3.9229701 2.0795395 -1.6166403
3.2500079 2.0518837 -1.3488691
2.9554696 2.0618527 -1.2167437
2.9969406 1.8024784 -1.4177183
2.8432329 1.8852292 -1.3444096
2.6846204 2.0982161 -1.3048056
2.2189329 1.8951346 -1.0630527
3.9641981 1.8856812 -1.1231815
3.97755 2.0152881 -1.3655192
3.1503322 1.8931545 -1.0605752
2.6523111 2.0557096 -0.8908779
7.0248818 3.348201 -1.2410247
6.2886562 3.2234702 -1.4504027
6.1776857 3.2664847 -0.64567751
48.186768 37.207657 1.0496194
9.2839651 5.8181386 -1.0170827
8.652379 5.6732984 -1.2446166
7.9128823 5.8294272 -0.77313042
8.0370016 5.7556434 -1.1277968
7.6299047 5.8648152 -1.030622
6.153656 3.1424854 -0.38802111
10.062445 6.1089296 -0.68482804
8.5164204 6.2629681 -0.10106349
8.9496069 7.0663366 -0.0434811
8.3842382 6.442637 -0.3988353
37.68655 19.744452 1.0385581
35.29269 20.244474 1.2446048
35.773525 19.887568 -0.17409121
3.9589448 2.0829256 -1.6300896
3.3070765 2.0729373 -1.3723998
3.0535262 2.1170144 -1.2598243
3.0198464 1.8031881 -1.4268539
2.8901203 1.9037249 -1.3664073
2.6241605 2.0385313 -1.2681412
2.2123365 1.8773198 -1.0560254
3.9526918 1.8651296 -1.1175755
3.9754348 1.9984854 -1.3622737
3.1629348 2.0887923 -1.0679041
2.6541924 2.0439098 -0.88908321
7.0407138 3.3286233 -1.2420787
3.9561489 2.0013249 -0.85331768
6.1509356 3.2278285 -0.64053118
48.341499 37.085308 1.0502849
9.3579645 5.823462 -1.0244641
8.6767893 5.6504259 -1.2457372
7.8619742 5.7541842 -0.76452839
7.5352721 5.9176841 -0.68699777
8.0598974 5.7337971 -1.1286063
7.9330144 6.0594687 -1.0771897
6.1510329 3.1168785 -0.38680661
10.054225 6.0608726 -0.68239534
8.5215006 6.2256021 -0.10053617
8.3341904 6.535666 -0.025562599
7.857089 5.5798697 -0.40571636
8.4218626 6.4296331 -0.4001022
37.762596 19.633318 1.0388714
35.227592 20.060194 1.2408236
35.977615 19.853434 -0.17560051
74.932564 46.384254 2.8782284
3.9621904 2.0687408 -1.6285952
3.2977176 2.0528138 -1.3650465
2.9989648 2.0646317 -1.2311039
3.1182361 1.8477499 -1.4758546
2.8763146 1.881487 -1.3558158
2.7415762 2.1145873 -1.3287172
2.2349875 1.8847536 -1.0653951
3.9816942 1.9859854 -1.3622737
3.2106526 2.1062541 -1.0839565
2.6666996 2.0401516 -0.89147609
7.0386386 3.3006763 -1.2396195
3.9693692 1.9924262 -0.8550868
6.1381145 3.1966572 -0.63734537
9.9983912 7.0617847 0.30364531
9.6217194 5.9449482 -1.0568981
9.0813036 5.8746872 -1.3110036
7.9300032 5.7656026 -0.77072984
8.1086769 5.7300982 -1.1337337
7.9662013 6.0453453 -1.0795052
6.1411757 3.0877693 -0.38489813
9.9973774 6.4705539 -0.61698025
8.3294935 6.4897294 -0.024856459
7.8892846 5.565475 -0.40686715
8.4356689 6.3983026 -0.39964151
37.987629 19.598845 1.0424749
39.172092 22.146988 1.3548186
30.071156 16.466158 -0.11217327
75.052361 46.132938 2.8773186
3.9604585 2.0519686 -1.6248593
3.1389391 1.9418416 -1.2885717
2.9962363 2.0488124 -1.2267957
3.1177266 1.8343002 -1.4725326
2.8441086 1.8472763 -1.3354475
2.7247765 2.0882883 -1.3159643
2.3557584 1.975721 -1.1294217
4.0027471 1.8578123 -1.1299087
3.9845326 1.9717698 -1.3609756
3.2331214 2.1066501 -1.0901304
2.6944909 2.0477669 -0.89985138
7.0418205 3.2752512 -1.2382141
3.9738681 1.9790673 -0.85464454
6.1604953 3.1836889 -0.6390608
9.9287109 6.9662075 0.30275196
48.651657 36.840023 1.0516434
9.7726707 5.9954534 -1.0743451
9.1063709 5.8504233 -1.3121241
7.9545441 5.7453032 -0.77153009
7.5440383 5.8481836 -0.68362623
8.1347647 5.7102656 -1.1350831
7.9456406 5.9903345 -1.0730731
6.1526327 3.0693419 -0.38507164
9.9791107 6.414216 -0.61378551
8.7846298 6.3327284 -0.10862193
8.3924513 6.4966779 -0.026048079
7.9050946 5.5395198 -0.40673929
8.4509544 6.3681512 -0.39929599
39.325146 22.070824 1.3572712
30.091122 16.354382 -0.11183788
74.918747 45.727226 2.8674326
3.9570165 2.0343678 -1.6203762
3.1911807 1.9598776 -1.3098965
2.8966312 1.96626 -1.177253
3.1439826 1.8362782 -1.4833293
2.8743346 1.8543608 -1.3484833
2.4818017 1.8926913 -1.1804652
2.406898 2.0064118 -1.1544077
4.0277996 1.8539442 -1.1360753
3.6001749 1.8722245 -0.99119705
3.9957871 1.9617717 -1.3629228
7.0520759 3.2531106 -1.2382141
3.9835534 1.9683204 -0.85552907
6.1368427 3.1472368 -0.63440454
9.9768372 6.9532228 0.30300719
48.861404 36.757977 1.0532792
9.8917351 6.0255003 -1.0875423
9.1280375 5.8239264 -1.3126843
7.9660726 5.715662 -0.77072984
7.5749669 5.8342109 -0.68512464
8.1591768 5.6891999 -1.1361626
7.9580822 5.9605713 -1.0720441
6.165823 3.051753 -0.38541865
8.4080715 6.4666123 -0.025915669
10.037951 6.9787669 -0.57154667
8.4709167 6.3415713 -0.39929599
38.289047 21.330597 1.3249274
30.177544 16.27879 -0.11221056
33.461975 21.391665 0.26023081
3.9683306 2.0244851 -1.6226178
2.9489927 1.9888011 -1.1987934
3.162379 1.8336037 -1.4899734
2.8832066 1.8473164 -1.3501127
2.7588122 2.1738267 -1.1389489
2.475965 1.8761213 -1.1740887
2.5864007 2.144752 -1.2504476
4.0528665 1.8499388 -1.142242
3.6230826 1.86984 -0.99664551
4.0154967 1.955916 -1.3681153
7.0371566 3.2195575 -1.2332957
6.2935648 3.2733102 -1.0707014
3.9862247 1.9540594 -0.85464454
6.134294 3.1216855 -0.63268912
10.015101 6.9331913 0.30316672
48.954231 36.587509 1.052891
9.9004011 5.9882436 -1.0862002
8.5755424 5.6028419 -0.86425686
7.9839907 5.6906061 -0.77072984
8.2178135 5.6916394 -1.1429093
7.9751825 5.9343505 -1.0717869
6.1646299 3.027137 -0.38437766
10.488707 6.6504521 -0.65253937
8.4172468 6.4316387 -0.02560672
10.063117 6.9494562 -0.57180238
8.481205 6.3077521 -0.39860493
38.625237 21.359352 1.3327963
37.165379 19.904541 -0.18555059
33.419312 21.216679 0.26005486
3.9548681 2.001837 -1.6136514
3.2433727 1.9635959 -1.3282799
3.1311574 2.0992432 -1.2806466
3.1396258 1.8075229 -1.475024
2.9242678 1.8610694 -1.3688515
2.7953179 2.1880391 -1.152897
2.493645 1.8770601 -1.1804652
2.6326609 2.1697066 -1.2723104
3.6340609 1.8611116 -0.99828011
4.079371 1.9716108 -1.390184
2.7536848 2.0516236 -0.91540557
7.0526242 3.1998539 -1.2343497
6.2933273 3.2480576 -1.0686713
4.0133328 1.9518847 -0.85995197
6.1653733 3.1130557 -0.63562989
49.09782 36.455021 1.05339
9.6683693 5.8072591 -1.0533192
8.6180878 5.5921783 -0.86740112
7.9985743 5.6632056 -0.77032977
8.4387903 6.4190106 -0.7830869
8.2585497 5.6814604 -1.1466873
7.9826427 5.9009867 -1.0699859
6.2983294 3.1802142 -0.15429379
6.2746019 3.0562422 -0.39409345
10.636006 6.6974678 -0.66295713
9.9919748 7.0568132 -0.14975381
8.4421797 6.4088044 -0.02573915
8.4881544 6.2715554 -0.39768356
38.518684 21.142565 1.3277378
37.277161 19.814007 -0.1860723
33.53315 21.141487 0.26013064
3.9594841 1.9885612 -1.6129043
3.0975263 2.0622191 -1.2619781
3.1452885 1.7976513 -1.475024
2.9254897 1.8489116 -1.3664073
2.7292626 2.1233935 -1.1187241
2.2256861 1.8917968 -0.88791955
2.4891825 1.8616134 -1.1748857
2.6125665 2.1390553 -1.257475
3.6621192 1.8611616 -1.0053632
7.0644398 3.1784852 -1.2347009
6.2719798 3.2119825 -1.0625812
3.9616375 1.9109608 -0.84535652
6.1840124 3.0980844 -0.63685524
49.284496 36.35405 1.0546377
9.7087851 5.7900414 -1.056227
8.7107239 5.6137519 -0.87683427
8.0179548 5.6391916 -0.77052981
8.4335423 6.3731985 -0.78008991
8.2714396 5.6521482 -1.1458776
7.9708257 5.8534951 -1.0650976
6.2385159 3.1257782 -0.15026556
6.2363415 3.2645104 -0.3569662
10.685714 6.6820641 -0.66531843
9.9977036 7.0139432 -0.14916787
8.4622707 6.3822517 -0.02573915
8.5062075 6.2436738 -0.3975684
37.856533 20.624073 1.306533
31.743221 15.240426 -0.36646682
37.459461 19.760332 -0.18733938
3.9574339 1.9719272 -1.6091683
3.823308 2.2767394 -1.5885878
2.918011 1.9276259 -1.175817
3.1683974 1.797513 -1.4841598
3.0483034 1.9143871 -1.4283268
2.7105618 2.095511 -1.1068683
2.2358973 1.8884751 -0.88995671
2.5068705 1.8624378 -1.1812623
2.5624993 2.0839195 -1.2262424
3.6730859 1.8522803 -1.0069978
7.0761905 3.1570737 -1.2350523
6.2697611 3.1859674 -1.0602127
4.4162612 1.8629752 -0.95904446
3.9149878 1.8729382 -0.83208799
6.2008381 3.0821502 -0.63783556
6.179801 3.2947586 -0.60802346
49.472637 36.253456 1.055913
9.7389116 5.7665734 -1.0577927
8.8085995 5.6380291 -0.88689625
8.0519753 5.6253295 -0.77253032
