# .PCD v0.7 - Point Cloud Data file format
VERSION 0.7
FIELDS x y z
SIZE 4 4 4
TYPE F F F
COUNT 1 1 1
WIDTH 1455
HEIGHT 1
VIEWPOINT 0 0 0 1 0 0 0
POINTS 1455
DATA ascii
11.961273 -53.863201 -0.30681509
21.265675 -77.311378 2.6372001
24.812407 -78.486794 3.223114
20.084312 -77.255836 -0.16151303
12.58787 -41.815727 0.26558256
0.33264089 -2.1319048 -0.72019035
0.41861224 -2.1834297 -0.72374731
0.84031534 -2.1568775 -0.31421775
1.0104799 -2.354423 -0.33103961
0.73593873 -2.6206717 -0.9054631
0.77834165 -2.3978224 -0.80029792
0.63583952 -2.4687841 -0.9850173
0.65179187 -2.1876807 -0.84090614
0.95672226 -2.3017621 -0.75956059
1.0161524 -2.2012215 -0.70864666
0.89942962 -2.2905731 -0.89352572
0.92821574 -2.1218677 -0.80772686
0.4152599 -2.646946 -0.62368637
0.48265249 -2.4325547 -0.54441923
0.30477196 -2.2924612 -0.64181715
0.40871114 -2.356158 -0.65607834
0.60448056 -2.1411602 -0.45459038
0.70548326 -2.1999674 -0.45724308
0.55375677 -2.1361394 -0.5715338
0.64198256 -2.1520734 -0.56657845
1.1233276 -2.7441514 -0.60400665
1.2614826 -2.7587316 -0.58575505
0.89787412 -2.3155954 -0.61748415
1.0699669 -2.4687476 -0.65866035
0.51245195 -3.2329032 -0.43650854
0.57917184 -2.8871355 -0.35848579
0.31591257 -2.273644 -0.37980446
0.56915557 -3.1795976 -0.58042771
0.92849505 -3.3405979 -0.41709268
0.96799535 -3.0135362 -0.34145853
0.55578464 -2.140254 -0.32939771
0.87732351 -2.9297948 -0.48574066
2.1492431 -11.008145 -1.1676645
2.5125258 -11.018704 -1.1141018
20.965504 -61.746826 0.72615063
16.84753 -44.057983 0.85953838
3.0830142 -11.249104 -1.0967133
4.8102651 -15.37626 -1.482646
2.8573675 -10.996387 -1.4438906
1.0288682 -2.8295093 -0.087772921
11.800294 -37.669029 -1.1511037
12.86204 -36.344578 -0.9211818
12.728919 -32.082466 -0.55362862
12.820347 -33.575096 -1.8619784
16.424751 -85.350983 1.9076788
19.143848 -82.147324 2.3604372
18.051758 -82.449036 -0.57911992
20.89653 -76.912834 2.6225829
24.35973 -77.906311 3.197824
19.896128 -77.53167 -0.16252843
0.3305698 -2.1658778 -0.73396081
0.4091967 -2.1720016 -0.71851701
1.0179501 -2.6537392 -0.41990387
1.0085942 -2.3701937 -0.33361435
0.6657716 -2.3911719 -0.81060505
0.72721577 -2.2691798 -0.74716514
0.6590578 -2.5980511 -1.0448147
0.63312501 -2.1513028 -0.82298207
0.93556881 -2.2699461 -0.7456125
0.99961573 -2.1839795 -0.70049798
0.88705361 -2.2796562 -0.88714921
0.93507349 -2.1550298 -0.82178152
0.41923472 -2.7337508 -0.64891344
0.55268151 -2.8110101 -0.65338939
0.29845622 -2.3009083 -0.64445263
0.41853112 -2.4523597 -0.68918121
0.61065716 -2.1915002 -0.46837085
0.77724504 -2.44084 -0.52393609
0.55242777 -2.1599939 -0.57911581
0.64528352 -2.1868088 -0.57769156
1.1161265 -2.7512708 -0.60499853
1.1710469 -2.5864112 -0.53838921
0.88393849 -2.3005188 -0.61150169
1.0483043 -2.4405859 -0.64818096
0.51031995 -3.2890391 -0.44634545
2.2509713 -11.027645 -1.784947
0.30468524 -2.2417569 -0.37212345
0.5669322 -3.2235718 -0.59015799
0.89003474 -3.2385836 -0.39945465
0.96527833 -3.0372307 -0.34480327
0.54535437 -2.1267996 -0.32600001
0.82980752 -2.80706 -0.4584589
2.134614 -11.120154 -1.1808981
2.4629383 -10.960688 -1.1061504
21.230822 -63.181316 0.73766845
16.250738 -42.90284 0.84162819
3.0095468 -11.116689 -1.0801609
4.7477522 -15.345716 -1.477615
2.7789516 -10.832691 -1.4178169
1.0127363 -2.8120692 -0.085572407
1.0341464 -3.00227 -0.21403874
11.721017 -37.831898 -1.1556497
12.858634 -36.701851 -0.93102539
12.705757 -32.319489 -0.55830681
12.726126 -33.645077 -1.8638211
16.133892 -85.282303 1.9052895
18.974882 -82.59481 2.3706055
8.7915812 -49.995071 -0.6200546
11.609941 -53.878647 -0.30625606
20.730341 -77.260025 2.6314383
13.455427 -43.550934 1.8758656
19.743671 -77.95443 -0.16424534
0.32803687 -2.1980278 -0.74696642
0.40201196 -2.1714563 -0.71776986
1.0857434 -2.862941 -0.463907
1.0246123 -2.4274561 -0.3446489
0.73274237 -2.6755989 -0.92605233
0.71249801 -2.2484024 -0.737831
0.58719003 -2.3347366 -0.92023659
0.62583274 -2.1515331 -0.82216734
0.92290956 -2.2589326 -0.74003327
0.99991375 -2.2024493 -0.70660949
0.87796265 -2.2772765 -0.88475811
0.94322443 -2.1916223 -0.83739787
0.41625515 -2.7749782 -0.66068596
0.55340874 -2.8598816 -0.66701066
0.29252225 -2.3130901 -0.64840591
0.39754966 -2.3791661 -0.66321814
0.61456084 -2.2344391 -0.48003119
0.7677747 -2.4377563 -0.52239698
0.55095404 -2.1838603 -0.58669782
0.68489933 -2.3417082 -0.62955284
1.1060636 -2.7511551 -0.60400665
1.1507341 -2.5635982 -0.53128427
0.90310848 -2.3749106 -0.63543117
1.0298963 -2.4193251 -0.64003026
0.48006549 -3.1522605 -0.42140192
2.1915803 -10.912967 -1.7636315
0.29740679 -2.2407689 -0.37167159
0.55367845 -3.2080629 -0.58617741
0.88236773 -3.2509091 -0.40105808
0.95451552 -3.0364866 -0.3441951
0.53501391 -2.1133008 -0.3226023
0.90473348 -3.0870891 -0.51872301
2.0760357 -10.999967 -1.1649688
2.4310961 -10.980001 -1.1075536
21.010798 -63.183163 0.73712605
2.9506865 -11.035793 -1.0696478
4.69835 -15.356752 -1.4771957
2.766082 -10.925827 -1.430564
0.94794196 -2.7741575 -0.18084548
11.604455 -37.876183 -1.1559253
12.864228 -37.091568 -0.94186497
12.712503 -32.63678 -0.56488281
12.634405 -33.722279 -1.8661246
15.936691 -85.713966 1.9128881
18.707796 -82.620857 2.3697367
8.620573 -49.941643 -0.61871755
11.445618 -53.938332 -0.30647969
20.424625 -77.087059 2.6239779
13.66994 -46.99971 0.27272636
0.32137576 -2.2008791 -0.74773151
0.40190387 -2.2073114 -0.73196644
1.1320119 -3.0173461 -0.49612361
0.97271264 -2.3277225 -0.32368326
0.74308455 -2.749882 -0.95546567
0.72681344 -2.316303 -0.76439738
0.57272744 -2.3064718 -0.9061178
0.62432033 -2.1709833 -0.83031464
0.92539752 -2.2862484 -0.74979687
1.0040593 -2.2294769 -0.71611643
0.87271273 -2.2851846 -0.88714921
1.000801 -2.341222 -0.90532851
0.4093639 -2.7895856 -0.66461015
0.54366857 -2.857832 -0.66592097
0.28441364 -2.3064914 -0.64577037
0.37801066 -2.3114562 -0.63920236
0.61771619 -2.275557 -0.49116158
0.68887395 -2.2193964 -0.46083426
0.5650723 -2.2742145 -0.61702603
0.68137342 -2.3566008 -0.6338746
1.0981166 -2.7564228 -0.60450262
1.2789799 -2.8659599 -0.61133265
0.9322902 -2.4781282 -0.66893238
0.97204489 -2.3066914 -0.60160583
0.46302509 -3.1030612 -0.41226768
0.46921411 -2.4788251 -0.28608003
0.28694543 -2.2126684 -0.36489424
0.53166121 -3.142571 -0.57069743
0.8656975 -3.2288258 -0.39688909
0.94256246 -3.031939 -0.34297886
0.52521491 -2.1016598 -0.31962931
0.85695231 -2.9623256 -0.49103415
2.0536213 -11.07282 -1.1733011
2.3824718 -10.923575 -1.0998361
14.564128 -44.235802 0.57748812
16.275967 -43.796867 0.85335571
2.961267 -11.218058 -1.0897791
4.6466074 -15.360019 -1.475938
2.7284169 -10.921015 -1.4285362
13.6186 -44.937344 -1.4089186
12.826029 -37.360638 -0.9489547
12.713045 -32.943237 -0.57119399
12.855518 -34.64138 -1.9202554
15.65334 -85.68689 1.9113604
18.656116 -83.609962 2.3941095
20.282394 -77.533806 2.635987
14.370347 -47.561867 2.0263579
11.90188 -48.223118 -0.02234124
0.31757796 -2.2256973 -0.7576769
0.40852877 -2.2796323 -0.76110685
0.79777676 -2.1248617 -0.30518138
1.0131948 -2.442888 -0.346488
0.65895224 -2.458586 -0.8356064
0.72067755 -2.3221285 -0.76583338
0.56299716 -2.2976289 -0.90113473
0.64139277 -2.2534847 -0.86779225
0.93927348 -2.3433013 -0.77141654
1.0135416 -2.2685187 -0.73037672
0.86615998 -2.2896376 -0.88794637
0.99932623 -2.3578582 -0.91157496
0.39957708 -2.7832472 -0.66236782
0.51652884 -2.7669971 -0.63922328
0.27879992 -2.3223917 -0.65104145
0.3701067 -2.3089037 -0.63790417
0.64982575 -2.4306715 -0.53462303
0.68072212 -2.2178664 -0.45980817
0.56051248 -2.2870657 -0.62081701
0.63602686 -2.2310863 -0.59065694
1.1297963 -2.8647444 -0.63326532
1.3268396 -2.9956572 -0.64496237
0.92255396 -2.475661 -0.66713768
0.97537428 -2.334343 -0.60975647
0.31134364 -2.0726669 -0.22642089
0.45495611 -2.447407 -0.28032812
0.29530728 -2.3471162 -0.39607015
0.45009524 -2.7330251 -0.47604841
0.92224181 -3.491595 -0.44050318
0.93661052 -3.0461931 -0.34480327
0.56356174 -2.2955055 -0.36252525
0.84930378 -2.9706371 -0.49225569
2.0244455 -11.110476 -1.1772221
2.3569975 -10.971766 -1.1047473
22.918776 -70.404312 0.79659748
15.272186 -41.4986 0.81864429
2.8802934 -11.050266 -1.0692005
4.5954633 -15.365018 -1.4748898
2.6875253 -10.902618 -1.4244802
5.8115149 -15.833975 -1.9702077
13.504372 -45.069889 -1.412156
12.853028 -37.826736 -0.96213794
12.722522 -33.278027 -0.5781672
12.72661 -34.627266 -1.9169154
15.45458 -86.129303 1.9191939
18.348211 -83.463142 2.3887444
10.08968 -60.760712 -0.79667902
17.355442 -84.324478 -0.5948649
20.15403 -78.044304 2.6499977
24.088266 -80.576714 3.2885742
0.31269088 -2.2431812 -0.76456219
0.40033895 -2.2754347 -0.75886524
0.7712248 -2.0719843 -0.2933948
1.1210722 -2.7194922 -0.40202844
0.66769379 -2.5255442 -0.86207843
0.71054506 -2.3154883 -0.76224333
0.57495165 -2.3827207 -0.9401691
0.61683482 -2.1958959 -0.84009135
0.92449343 -2.3270001 -0.76374495
1.0095295 -2.2785392 -0.73309302
0.84082723 -2.2423389 -0.86483181
0.98680109 -2.3491542 -0.90610933
0.37288448 -2.6474311 -0.62200451
0.50929213 -2.7761645 -0.64140272
0.27626225 -2.3683259 -0.66685444
0.3631655 -2.3119204 -0.63855326
0.62185043 -2.3523083 -0.5118323
0.67258686 -2.2163069 -0.45878214
0.55970722 -2.3165543 -0.63029456
0.60595506 -2.1545913 -0.56410891
1.0787059 -2.7578361 -0.60301489
1.3428751 -3.0565419 -0.66011947
0.97522652 -2.6474464 -0.72337186
0.94102657 -2.2740297 -0.58879769
0.29513031 -2.0014343 -0.21342219
0.45288104 -2.4778538 -0.28540334
0.2881479 -2.3499684 -0.39652196
0.38163543 -2.3845229 -0.39555246
0.91126794 -3.4944754 -0.44050318
0.90873283 -2.9906385 -0.33537722
0.5581038 -2.3048823 -0.36422417
0.6974408 -2.4845393 -0.38638628
1.9788312 -11.056184 -1.169625
2.3291678 -11.010195 -1.1084892
22.636248 -70.285583 0.79500222
15.735716 -43.173161 0.84265393
2.8681448 -11.147851 -1.0794899
4.5398002 -15.354596 -1.4721648
0.81831497 -3.2883265 -0.27665806
3.1432354 -11.23597 -1.4314525
1.0363516 -2.9134483 -0.18340003
13.499218 -45.571972 -1.4286871
12.850515 -38.21376 -0.97286034
12.703056 -33.542152 -0.58346325
12.653345 -34.764618 -1.9229044
14.915128 -84.649185 1.8888001
18.127872 -83.713799 2.3938029
10.120082 -50.017982 -0.26820719
19.884588 -78.012299 2.6470258
23.688721 -80.157532 3.2696619
19.206173 -80.047943 -0.173033
0.30518568 -2.240485 -0.76303214
0.39655149 -2.2949257 -0.76633722
0.7732479 -2.0984192 -0.29850233
0.93629938 -2.3023357 -0.31669474
0.61683559 -2.3562295 -0.79222172
0.68587178 -2.2625191 -0.73998505
0.57068282 -2.39871 -0.94681334
0.63688195 -2.2908025 -0.88327205
0.89378244 -2.2686002 -0.73933589
1.0023663 -2.2816992 -0.73309302
0.82014024 -2.2069888 -0.84729648
0.98594207 -2.3674753 -0.9131366
0.32880369 -2.3686504 -0.53959626
0.44460869 -2.4828131 -0.55640584
0.26997533 -2.3804536 -0.67080772
0.3691639 -2.3933063 -0.66646361
0.6125893 -2.3467658 -0.50971216
0.66619742 -2.2202547 -0.45929521
0.57760847 -2.4293358 -0.66820472
0.59493899 -2.1418693 -0.55916965
1.0412993 -2.6850777 -0.5821867
1.244014 -2.8601334 -0.60659611
0.86363161 -2.3590894 -0.62645757
0.93015438 -2.268162 -0.58588672
0.29191375 -2.0257776 -0.217638
2.0793207 -11.071323 -1.7866389
0.27950525 -2.3392406 -0.39381102
0.34766281 -2.2279775 -0.35928506
0.90793931 -3.5279655 -0.44563425
0.89641082 -2.9840369 -0.33385688
0.55259258 -2.3142474 -0.36592296
0.63215142 -2.287276 -0.34322411
1.9735833 -11.232497 -1.1909457
2.2802346 -10.94943 -1.1003039
22.395918 -70.295372 0.79449171
14.713314 -40.770008 0.80650085
2.7676587 -10.896605 -1.0492928
4.4943442 -15.378325 -1.473213
2.6436522 -11.023261 -1.4401244
3.0446415 -11.018789 -1.3981189
0.94489884 -2.689141 -0.15201187
13.200667 -45.084801 -1.4096763
12.829944 -38.553715 -0.98211801
12.672204 -33.780293 -0.58814156
12.636319 -35.059593 -1.9385679
14.711716 -85.058197 1.8960069
17.788364 -83.412537 2.3844523
16.883997 -84.726059 -0.59765989
19.562452 -77.768059 2.6374428
23.444633 -80.258415 3.2706881
18.956894 -80.117615 -0.17307913
13.065943 -47.123455 0.2726641
0.2988131 -2.2469361 -0.76532722
0.38041505 -2.2468717 -0.74616301
0.76534998 -2.0971384 -0.29771656
0.87930518 -2.185437 -0.29241878
0.61032242 -2.3617671 -0.79369235
0.70542699 -2.3502028 -0.77444959
0.53417468 -2.2708724 -0.88618541
0.62062889 -2.2611856 -0.86860704
0.87471759 -2.2398374 -0.7267825
0.9875015 -2.2676694 -0.72630239
0.8138172 -2.211283 -0.84809357
0.93027604 -2.2570112 -0.8608222
0.31424186 -2.3125186 -0.52277821
0.46714491 -2.6468878 -0.60326308
0.26212239 -2.3775313 -0.66948992
0.36708954 -2.428067 -0.67814684
0.63288391 -2.4610312 -0.54151326
0.65750742 -2.2167957 -0.4577561
0.60929185 -2.6070678 -0.72822922
0.59083122 -2.1528709 -0.56225669
1.0104674 -2.6284459 -0.56582171
1.2107102 -2.8089154 -0.59191263
0.78165954 -2.1492958 -0.55586576
0.92819828 -2.283427 -0.58996207
0.28304899 -2.0071547 -0.21412481
2.0271409 -10.984796 -1.7703981
0.3171722 -2.7683203 -0.49366441
0.3400279 -2.2252102 -0.35840052
0.83686399 -3.2873695 -0.40490639
0.86331087 -2.9093404 -0.32139015
0.5354957 -2.2721081 -0.35615459
0.63193518 -2.3137329 -0.3485176
1.928964 -11.183852 -1.1840838
2.2692194 -11.069344 -1.1138679
22.177366 -70.373016 0.79455554
16.411875 -45.918373 0.88163501
2.7334118 -10.905246 -1.0492928
4.4371285 -15.361809 -1.469859
2.5431569 -10.750196 -1.3978271
2.9831958 -10.93093 -1.3838332
0.89431888 -2.5744588 -0.13580325
13.105725 -45.287304 -1.4154621
12.821091 -38.935696 -0.99266469
13.312625 -35.824909 -0.63536513
12.63639 -35.407444 -1.9574559
14.422043 -84.971901 1.8933827
17.452988 -83.119736 2.3753572
16.642778 -84.906235 -0.59887099
19.476271 -78.467514 2.657397
11.928887 -51.089981 -0.035236578
0.3006418 -2.3231041 -0.79669344
0.36815751 -2.2188313 -0.73420793
0.75875777 -2.0995324 -0.29771656
1.148513 -2.8590117 -0.4281435
0.60642332 -2.378129 -0.79957503
0.68319124 -2.304244 -0.75506324
0.52273399 -2.2529941 -0.87704968
0.6224758 -2.2947588 -0.88327205
0.86110204 -2.2250202 -0.71980846
0.97578979 -2.2604456 -0.72222793
0.81234783 -2.2294011 -0.85526705
0.89246053 -2.1869495 -0.82724726
0.30836308 -2.3249297 -0.52614182
0.42726573 -2.4760938 -0.55368167
0.25447118 -2.3764632 -0.66883105
0.3348327 -2.2741368 -0.62427354
0.63607603 -2.5079827 -0.55423373
0.64376348 -2.1966648 -0.45159978
0.61129975 -2.6552987 -0.74402517
0.58458376 -2.1565459 -0.56287402
0.89253479 -2.3354406 -0.48498851
1.1800771 -2.7628579 -0.57865024
0.91829711 -2.5645781 -0.6928618
0.92688912 -2.3004692 -0.59461957
0.2750355 -1.9943579 -0.21166556
0.54596692 -3.1159778 -0.39604208
0.23496264 -2.048275 -0.32558542
0.34298199 -2.287885 -0.37255365
2.6736124 -10.888194 -1.6751655
0.9698348 -3.2942221 -0.38281158
0.55109555 -2.3768363 -0.37908903
0.65012407 -2.4061816 -0.36806267
1.8993752 -11.22314 -1.1882499
2.2252967 -11.031658 -1.1084892
21.724339 -69.697609 0.78833395
15.167104 -42.865292 0.83597231
2.7322278 -11.048909 -1.0649507
4.3943372 -15.394788 -1.4719551
2.5200517 -10.80441 -1.4047801
2.9956195 -11.112226 -1.4090433
0.92533284 -2.6875477 -0.15098277
12.851604 -44.938198 -1.4014797
12.80255 -39.295181 -1.0025082
13.200014 -35.866558 -0.63536513
12.640402 -35.772579 -1.9773808
14.147492 -84.971428 1.8924819
17.586952 -85.083054 2.4251759
10.488105 -68.495392 -0.92226624
9.6038733 -49.88139 -0.26602715
20.126188 -82.19455 2.7719066
23.929647 -83.869118 3.4028544
11.132662 -48.359287 -0.02212894
0.28996554 -2.2946639 -0.78445292
0.3844769 -2.3533874 -0.78875291
0.81160092 -2.2743225 -0.33425486
1.1246763 -2.8262002 -0.42078716
0.59416676 -2.3601301 -0.79148632
0.6830256 -2.329591 -0.76439738
0.51411086 -2.2475128 -0.87372756
0.64625394 -2.4075232 -0.93460011
0.85606378 -2.2329867 -0.7219007
0.97095889 -2.2686646 -0.7242651
0.81016922 -2.2457991 -0.86164355
0.86360395 -2.1370654 -0.80304199
0.30331099 -2.3449521 -0.53174782
0.44777799 -2.634619 -0.59890431
0.24770306 -2.3847718 -0.67146653
0.32070655 -2.2303154 -0.60869575
0.60482538 -2.4124479 -0.52667278
0.63909489 -2.2060785 -0.45365191
0.59692156 -2.629389 -0.73454756
0.56856692 -2.1254005 -0.55176097
0.84983683 -2.2418222 -0.45870537
1.2100453 -2.8556864 -0.60233313
0.85997486 -2.4212661 -0.64440465
0.93494731 -2.3405282 -0.60684556
0.27209562 -2.0225751 -0.21658404
0.54212618 -3.1506548 -0.40179393
0.30819917 -2.8555686 -0.51354468
0.38364324 -2.5914154 -0.4419924
0.81941456 -3.3060002 -0.40715122
0.96854776 -3.3275533 -0.38767663
0.56313676 -2.4683163 -0.39905062
0.76529783 -2.8496656 -0.46334517
1.8692359 -11.260393 -1.192171
2.1910195 -11.040543 -1.1087229
22.12314 -71.772499 0.80508429
16.28661 -46.486664 0.88848299
2.6858368 -11.00914 -1.0593586
4.3193421 -15.31476 -1.4616836
2.5111146 -10.922261 -1.4212934
2.9663455 -11.142618 -1.4121246
0.98652011 -2.8888125 -0.1782544
12.825823 -45.386063 -1.4160821
12.794725 -39.694893 -1.0135821
13.074237 -35.872166 -0.63452667
12.543148 -35.85545 -1.9800298
13.910704 -85.200958 1.8961635
17.299606 -85.039917 2.422621
9.4568148 -49.962406 -0.26651162
19.835987 -82.125221 2.7677824
23.695358 -84.04776 3.4068129
11.116226 -48.992859 -0.02496277
17.480509 -65.395271 0.29809639
0.28624484 -2.3267837 -0.79745853
0.35232908 -2.2101295 -0.72972488
0.9178198 -2.6090746 -0.40458137
1.0995833 -2.7896216 -0.41269517
0.58975285 -2.3746531 -0.79663378
0.68216825 -2.3531723 -0.77301347
0.51198852 -2.2722471 -0.88452435
0.58226711 -2.2053139 -0.84009135
0.84710491 -2.2303867 -0.71980846
0.96006197 -2.2630842 -0.72086978
0.81447518 -2.28128 -0.87678754
0.85547835 -2.1363649 -0.80148047
0.29287183 -2.3191919 -0.52389944
0.44988152 -2.6947572 -0.61579466
0.24139138 -2.3987041 -0.67607868
0.31341314 -2.2294416 -0.60804665
0.60478288 -2.4462416 -0.53568304
0.6360324 -2.2210414 -0.45724308
0.57636952 -2.5737245 -0.71496069
0.56290185 -2.1308424 -0.55299568
0.81964082 -2.1807404 -0.44134849
1.2179524 -2.8987463 -0.61275369
0.82592601 -2.3462687 -0.61868054
0.95215511 -2.4036925 -0.6266399
0.34768656 -2.7155774 -0.34095025
0.534289 -3.1639881 -0.403824
0.29570338 -2.8196731 -0.50496006
0.36922687 -2.5521312 -0.43270445
0.82038057 -3.3565872 -0.41516852
1.0214499 -3.5447774 -0.42203614
0.56192535 -2.5006504 -0.40584597
0.76982456 -2.9011486 -0.47393215
1.8686928 -11.369122 -1.2054045
2.2124836 -11.23877 -1.1321092
14.1625 -46.17239 0.59123927
16.271589 -46.678341 0.89092284
2.7056286 -11.167957 -1.0772531
0.77043957 -3.2937756 -0.2757889
3.0269852 -11.439999 -1.454982
0.89043534 -2.8222516 -0.18462358
5.3323708 -15.345943 -1.8896794
12.874755 -45.833294 -1.4313734
12.832258 -40.027214 -1.0231913
12.961185 -35.736683 -0.63086349
12.545346 -36.042904 -1.9902802
13.827506 -85.536591 1.9023911
17.213938 -85.304123 2.4288037
9.3753681 -49.961472 -0.26636255
19.636185 -81.860779 2.7585633
23.695585 -84.556343 3.4247723
11.226047 -49.84153 -0.028895071
17.370573 -65.395599 0.29805851
0.27914912 -2.296005 -0.78445292
0.34668413 -2.1978774 -0.72449452
0.88850367 -2.5362356 -0.38886595
0.80458492 -2.0691328 -0.26703936
0.58389097 -2.3665245 -0.79295701
0.68115103 -2.3631814 -0.77660364
0.50992817 -2.2801685 -0.88784647
0.58218777 -2.2185552 -0.84579444
0.84231341 -2.2281938 -0.71841365
0.95575595 -2.2628641 -0.72019076
0.80374545 -2.2617369 -0.86722291
0.85212177 -2.137706 -0.80148047
0.28836343 -2.3120191 -0.52165711
0.45494297 -2.7485347 -0.63105053
0.22584814 -2.2655253 -0.62929845
0.32119212 -2.3047554 -0.63400972
0.56966043 -2.3138864 -0.49805182
0.65124822 -2.2850447 -0.47468591
0.55225831 -2.4799542 -0.68273693
0.56005895 -2.1335585 -0.55361313
0.81555611 -2.180203 -0.44085264
1.2317497 -2.9435275 -0.62412143
0.83264363 -2.3782933 -0.62885058
0.9570154 -2.4264598 -0.63362622
0.36374986 -2.8901696 -0.37221748
1.9222598 -11.097669 -1.7863003
0.27175927 -2.612582 -0.4566147
0.31731465 -2.2403815 -0.36105418
0.80653393 -3.3213563 -0.40907538
1.0855981 -3.783432 -0.46004447
0.5588091 -2.5053535 -0.4066954
0.82353151 -3.1158121 -0.51994461
1.8002735 -11.1691 -1.1796728
2.170289 -11.210579 -1.1278996
22.425533 -73.993011 0.82272786
16.184963 -46.903114 0.89347351
2.6270659 -10.992665 -1.0560033
0.76825452 -3.3328817 -0.28129339
2.8209336 -10.804136 -1.3605837
0.87640131 -2.8079636 -0.18219484
5.2692256 -15.319507 -1.8837619
12.891901 -46.453159 -1.452106
12.877737 -40.608635 -1.0398315
12.869161 -35.833664 -0.63218749
12.535672 -36.382221 -2.0085921
13.557462 -85.571709 1.9022346
16.793011 -84.589096 2.4087741
9.9690142 -68.70826 -0.92445135
9.2121792 -49.957249 -0.26604581
19.418436 -82.089386 2.7637794
21.517084 -77.72934 3.1621251
11.950064 -53.854191 -0.047698081
17.157417 -65.42083 0.29801789
0.27036157 -2.282172 -0.77833277
0.34434798 -2.2264054 -0.7357024
0.82369387 -2.3698542 -0.35311341
0.78643024 -2.0424335 -0.26115429
0.57182723 -2.3484182 -0.78486842
0.70076883 -2.4565873 -0.81322205
0.49681491 -2.2532625 -0.87455809
0.58668888 -2.2626817 -0.86534798
0.83594722 -2.2325919 -0.71911108
0.94864213 -2.2658558 -0.72019076
0.77893573 -2.212146 -0.84331131
0.84818447 -2.1471918 -0.8046037
0.28109846 -2.3129134 -0.52165711
0.43033201 -2.6570201 -0.60435277
0.22544698 -2.3452497 -0.65697128
0.32168213 -2.3581548 -0.65218389
0.55543381 -2.2856026 -0.48957157
0.63590133 -2.2592564 -0.46699047
0.54175085 -2.4686739 -0.67831415
0.55884111 -2.1555007 -0.56040448
0.80348033 -2.1681604 -0.43688536
1.0585411 -2.5610211 -0.52181113
0.82213628 -2.3718495 -0.62585938
0.89582551 -2.2963207 -0.58996207
0.35200089 -2.8678224 -0.36800176
0.5106684 -3.1159649 -0.39502701
0.23552056 -2.3049147 -0.38477448
0.30911607 -2.2336521 -0.35928506
0.79921186 -3.3373365 -0.41132021
1.0444624 -3.6862206 -0.44392893
0.55413634 -2.5224006 -0.4100931
0.82902908 -3.1751022 -0.53216028
1.7938652 -11.359064 -1.2027088
2.1294229 -11.188086 -1.1243917
22.451584 -74.9272 0.8299225
16.124289 -47.207272 0.8971886
2.6466913 -11.233123 -1.082845
2.4023733 -10.837264 -1.4056492
2.8114154 -10.906851 -1.3743094
5.216578 -15.322847 -1.8819612
12.913229 -47.102489 -1.4738718
12.876698 -41.05336 -1.0522531
12.892782 -36.256264 -0.64114678
12.531745 -36.744503 -2.0282867
13.469175 -86.779739 1.9253432
16.506086 -84.533508 2.4059639
6.8675575 -48.347115 -0.58858436
19.238457 -82.484863 2.7742116
21.495516 -78.610054 3.1930594
17.614988 -80.640327 -0.1740576
16.935247 -65.410522 0.29792857
0.26013726 -2.2536013 -0.76609218
0.35379431 -2.3281779 -0.77679795
0.77293277 -2.2421701 -0.32561141
1.0234603 -2.6610458 -0.38510883
0.54577786 -2.268615 -0.7517783
0.68098038 -2.4175739 -0.79670781
0.49888641 -2.2993665 -0.89532101
0.63155681 -2.4585919 -0.95496845
0.82892936 -2.2352066 -0.71911108
0.93708295 -2.258446 -0.71611643
0.7772432 -2.2302301 -0.85048479
0.84350592 -2.1549664 -0.8069461
0.27321804 -2.3080585 -0.51997524
0.36661676 -2.3300819 -0.51009357
0.21792424 -2.3440642 -0.65631241
0.30832642 -2.3179619 -0.63790417
0.54825079 -2.2873363 -0.48957157
0.63095468 -2.2686691 -0.4690426
0.53170186 -2.4592106 -0.67452306
0.5496012 -2.1480589 -0.5573175
0.81542999 -2.2236364 -0.45126671
0.9374761 -2.2956703 -0.45076233
0.81648284 -2.3798549 -0.62765414
0.8673498 -2.2458031 -0.57249641
0.34126085 -2.8532577 -0.36519116
0.32173511 -2.0583057 -0.21062914
0.23763898 -2.4123898 -0.4096249
0.30493331 -2.2539096 -0.3637079
0.78960198 -3.3436804 -0.41196162
0.97556674 -3.4899938 -0.41200194
0.54187435 -2.5030723 -0.40542123
0.68455243 -2.6724715 -0.42344058
1.7764114 -11.484343 -1.2176577
2.0990698 -11.22009 -1.1274319
22.297783 -75.273514 0.83221972
20.680176 -61.149368 1.100522
2.5842216 -11.123231 -1.0692005
2.980974 -11.060234 -0.99191749
2.3687322 -10.846693 -1.4059389
2.7687602 -10.883023 -1.3695474
5.1690493 -15.341038 -1.8822181
12.823327 -41.338055 -1.0597529
12.894572 -36.624683 -0.64882612
12.466791 -36.933109 -2.0373852
13.223469 -86.999565 1.9288684
16.350307 -85.156281 2.4208326
8.8903799 -49.970829 -0.26563585
18.968931 -82.500069 2.7728164
21.076799 -78.042442 3.1689427
11.596334 -53.857811 -0.047365751
16.723219 -65.438217 0.29789338
0.25046498 -2.2286673 -0.75538182
0.34559864 -2.3237822 -0.77455634
0.69417602 -2.0266404 -0.27964383
1.0100784 -2.6514337 -0.38253409
0.53742051 -2.2648757 -0.74957234
0.67286283 -2.4179084 -0.79598987
0.48228711 -2.2545562 -0.87372756
0.59160733 -2.338722 -0.89875197
0.81939501 -2.2307341 -0.71632153
0.92557949 -2.2509866 -0.71204209
0.75980926 -2.2013316 -0.83613777
0.83947158 -2.1644423 -0.81006932
0.26794901 -2.3280005 -0.5255813
0.360551 -2.3388166 -0.51227301
0.20952219 -2.3315597 -0.65170026
0.29787001 -2.2964413 -0.63011527
0.53429663 -2.2589424 -0.48109126
0.62275892 -2.2669239 -0.46801656
0.53224486 -2.5017884 -0.68842351
0.54723608 -2.1663244 -0.56287402
0.88347542 -2.4401014 -0.50928807
0.90558207 -2.2394207 -0.43513161
0.78461003 -2.3080614 -0.60312635
0.99807674 -2.5973117 -0.68660539
0.34972316 -3.0168025 -0.39435053
0.32171896 -2.0981987 -0.21739604
0.2282539 -2.3917692 -0.40465483
0.2947982 -2.2336199 -0.35884285
0.7886216 -3.3885169 -0.41901678
0.97215545 -3.519664 -0.4162589
0.52236539 -2.4472983 -0.39267984
0.64479214 -2.555301 -0.39778757
1.7344655 -11.450603 -1.2127564
2.0823522 -11.326218 -1.1393589
22.371624 -76.404694 0.84104145
21.250544 -63.489422 1.1337918
2.5207114 -11.005306 -1.0546613
2.9420846 -11.054176 -0.99024057
2.3391719 -10.875372 -1.4091257
2.720443 -10.836 -1.3614241
5.1227193 -15.362844 -1.88299
13.325832 -49.82774 -1.5682364
12.896154 -36.999134 -0.65663785
13.06814 -87.8358 1.9446133
16.103123 -85.315269 2.4236429
6.7087545 -49.463413 -0.60625994
8.733345 -49.998512 -0.26563585
18.845991 -83.161743 2.7915578
20.591217 -77.208435 3.1347833
11.429145 -53.903763 -0.047411919
13.978141 -55.438236 0.28386027
0.24668932 -2.2625477 -0.76915228
0.338009 -2.3230233 -0.77380913
0.69205487 -2.0418642 -0.28239405
1.0052983 -2.6637583 -0.38437325
0.53070593 -2.2683685 -0.75030768
0.70428276 -2.556406 -0.85055858
0.47981536 -2.2792578 -0.88452435
0.54365003 -2.1850483 -0.82705563
0.81113988 -2.2297602 -0.71492666
0.92287409 -2.2642891 -0.71611643
0.73797572 -2.1584077 -0.81541437
0.8333472 -2.1687801 -0.81085008
0.26332676 -2.3555732 -0.53342962
0.35443392 -2.3475358 -0.5144524
0.20162742 -2.3246744 -0.64906484
0.29892597 -2.3573339 -0.6508857
0.5305326 -2.2756727 -0.48533136
0.61563396 -2.2688692 -0.46801656
0.54770076 -2.6206992 -0.72822922
0.54428005 -2.1827559 -0.56781322
0.86881381 -2.4227312 -0.50383312
0.86811364 -2.1686275 -0.41571158
0.81506592 -2.4266875 -0.64141357
0.981543 -2.5790536 -0.67961913
0.35043499 -3.1158028 -0.41191638
1.7769572 -11.085928 -1.7802103
0.22042274 -2.3885908 -0.40375116
0.28397927 -2.207494 -0.35265079
2.4374912 -10.880767 -1.6652241
0.96536398 -3.5379269 -0.41869143
0.50588685 -2.4048438 -0.38291147
0.78332913 -3.1221237 -0.51913023
1.6738288 -11.287081 -1.1916809
2.0278163 -11.229151 -1.1269642
21.926016 -75.763733 0.83513904
21.217178 -64.056969 1.1411113
2.449306 -10.848298 -1.0356483
3.0348165 -11.543994 -1.0426464
2.3224325 -10.965954 -1.4215831
2.6700463 -10.779177 -1.3519001
5.0650644 -15.350623 -1.8791308
14.872424 -56.305882 -1.7976732
16.421604 -54.164982 -1.4500958
12.863496 -37.281345 -0.66228706
12.870044 -88.412682 1.9552276
15.766359 -84.995895 2.4140368
10.629679 -80.38842 -1.1146096
8.563014 -49.948833 -0.26490915
18.627287 -83.411751 2.7975016
20.419909 -77.543304 3.1450455
10.439744 -50.001919 -0.0288489
11.98013 -48.165775 0.27365485
0.2213612 -2.0701399 -0.688824
0.36901823 -2.5734537 -0.87542713
0.68744045 -2.049628 -0.28357267
0.99551469 -2.663233 -0.38363755
0.52556598 -2.2791088 -0.75398433
0.71249717 -2.616087 -0.87353498
0.47579631 -2.2968242 -0.89199901
0.53450364 -2.1779015 -0.82298207
0.80782652 -2.2429199 -0.71911108
0.90852576 -2.2498107 -0.70932579
0.73119146 -2.1607156 -0.81541437
0.83192384 -2.1850948 -0.81709671
0.25555274 -2.3525674 -0.53230846
0.41896597 -2.8009534 -0.64412689
0.19500479 -2.3347132 -0.65235913
0.29151893 -2.3582611 -0.6508857
0.52625799 -2.2905173 -0.48904145
0.60746127 -2.2670686 -0.46699047
0.51615101 -2.503221 -0.68779176
0.53742027 -2.1844552 -0.56781322
0.90150738 -2.5427167 -0.53557122
0.89002067 -2.2414701 -0.43418431
0.81444073 -2.4510405 -0.64859235
0.84752893 -2.2574456 -0.57366073
1.1398263 -11.036942 -1.8322914
0.4730247 -3.1318686 -0.39671877
0.21352543 -2.3970408 -0.40555844
0.27624685 -2.2025778 -0.35132393
2.399087 -10.869083 -1.6620171
0.94738239 -3.5161779 -0.41473857
0.5062263 -2.4466963 -0.39183047
0.59908551 -2.4435933 -0.372949
1.6411659 -11.311934 -1.1941316
1.9907715 -11.22569 -1.1257949
14.578259 -44.506596 0.85488057
2.4498055 -11.013162 -1.0537665
2.9279952 -11.284095 -1.0132991
2.281579 -10.942185 -1.4169478
2.6556275 -10.866338 -1.363385
0.9643355 -3.2844515 -0.2477717
5.0174317 -15.368345 -1.8793881
12.986222 -49.809921 -1.5646546
14.017867 -46.752674 -1.2217611
12.88487 -37.72641 -0.67173171
12.532033 -88.02903 1.946846
15.534802 -85.239723 2.4190955
14.425391 -85.649658 -0.60198277
18.36772 -83.481583 2.7978656
20.004997 -76.94944 3.1201224
17.424755 -84.877632 -0.1930083
11.834961 -48.228424 0.27369004
0.2108309 -2.0266585 -0.6704632
0.3794181 -2.697515 -0.92548883
0.68397444 -2.0611198 -0.28553712
0.9081139 -2.4587352 -0.34207416
0.52310789 -2.3025665 -0.76280838
0.68770456 -2.5589828 -0.84984064
0.49022999 -2.4108665 -0.94432175
0.52855939 -2.1831107 -0.82461143
0.79772425 -2.2365847 -0.71562397
0.90288842 -2.2561316 -0.71068382
0.72608757 -2.1682394 -0.81780553
0.82237953 -2.1808355 -0.81397343
0.24293073 -2.29793 -0.51605111
0.43948475 -2.9904969 -0.69806719
0.18610469 -2.3127081 -0.64445263
0.28287506 -2.3497875 -0.64764035
0.5376935 -2.3788908 -0.51342225
0.61166871 -2.3099563 -0.47827703
0.50577521 -2.491786 -0.6833688
0.54230452 -2.2322161 -0.58324814
0.9247179 -2.6372507 -0.56036663
0.89832234 -2.2820637 -0.44413108
0.79806924 -2.4263041 -0.63961881
1.1059126 -11.048306 -1.8336966
0.46713844 -3.1586573 -0.40111724
0.21634473 -2.5356412 -0.43763807
0.27010369 -2.2092345 -0.35265079
0.71142334 -3.1854262 -0.38406146
0.93998438 -3.5324829 -0.41686705
0.51037765 -2.5096838 -0.40542123
0.58852607 -2.4340727 -0.37050587
1.6146733 -11.381907 -1.2022187
1.9579108 -11.245581 -1.1274319
21.423464 -75.80761 0.8343733
14.235179 -43.926399 0.84575909
2.362572 -10.778009 -1.0258064
2.8775964 -11.235467 -1.0070105
2.2353911 -10.891117 -1.4082565
2.6458411 -10.974678 -1.3779509
4.9672866 -15.378372 -1.8786163
12.115869 -47.082737 -1.4661572
13.672427 -46.125523 -1.2012537
12.883684 -38.113277 -0.67980832
12.170979 -87.459908 1.9348216
15.261286 -85.256607 2.4182777
11.0792 -88.060921 -1.2396425
18.1654 -83.816315 2.806478
19.816376 -77.21904 3.1279657
11.471866 -56.742012 -0.060279548
13.734196 -56.718136 0.2854628
0.20235741 -2.0033808 -0.66051781
0.37175205 -2.7041998 -0.92773044
0.67454857 -2.0539072 -0.28357267
0.93229038 -2.5461912 -0.35899383
0.52166641 -2.3314884 -0.77383834
0.70001733 -2.6349075 -0.87927896
0.47082126 -2.3498249 -0.91525352
0.52481157 -2.197161 -0.83031464
0.79734635 -2.2585969 -0.72329557
0.90434146 -2.2798514 -0.71883273
0.7192722 -2.1705101 -0.81780553
0.82547593 -2.209172 -0.82568556
0.23448992 -2.2852983 -0.51212686
0.4315384 -3.0013747 -0.70079142
0.17834027 -2.3057446 -0.64181715
0.27043411 -2.3112609 -0.63400972
0.53580546 -2.4069824 -0.52084255
0.6089921 -2.3286498 -0.48289424
0.46409726 -2.314368 -0.62271243
0.51904219 -2.1693406 -0.56163925
0.90529865 -2.607091 -0.55144036
0.84546083 -2.1713045 -0.41429061
0.7360934 -2.2558362 -0.58278638
0.90614969 -2.4540703 -0.63595498
1.0728655 -11.069367 -1.8368584
0.45512584 -3.1464701 -0.39874884
0.22416176 -2.7558987 -0.48869434
0.26923931 -2.2564874 -0.36326569
0.72226459 -3.2861431 -0.40041673
0.89018923 -3.3923004 -0.39406201
0.5039466 -2.5189557 -0.40712014
0.58419383 -2.449209 -0.37335616
1.5722045 -11.337756 -1.1960921
1.9642707 -11.492405 -1.1561971
21.500008 -77.003426 0.84372151
14.061028 -43.858566 0.84412336
2.354008 -10.903941 -1.0394509
2.776391 -10.986202 -0.97892082
2.1938078 -10.861213 -1.402752
2.5928502 -10.905914 -1.3667462
4.3043404 -15.353493 -1.9530399
4.9074225 -15.358025 -1.8737278
15.903093 -54.292404 -1.4493341
12.872572 -38.477745 -0.68735522
12.519255 -92.090759 2.0256112
15.037407 -85.554214 2.424767
10.78623 -87.962296 -1.2374575
17.96784 -84.181885 2.8160608
19.605139 -77.404892 3.1326571
16.800798 -84.530312 -0.19086677
13.544312 -56.712376 0.28539515
0.19762446 -2.0224197 -0.66816813
0.43014488 -3.1699252 -1.1167697
0.6715942 -2.0672488 -0.28592998
0.93460399 -2.5767322 -0.36451101
0.52575791 -2.3877323 -0.79589832
0.68142891 -2.599273 -0.86420077
0.63830394 -3.2921879 -1.352107
0.51834589 -2.200572 -0.83112937
0.79324293 -2.2699709 -0.7267825
0.89434814 -2.2757072 -0.71611643
0.71741498 -2.1885033 -0.82497907
0.83300924 -2.2495875 -0.8428635
0.22495288 -2.2592502 -0.50427848
0.33371732 -2.4108047 -0.53134274
0.17287377 -2.334563 -0.65170026
0.25753349 -2.2670484 -0.61843181
0.53689247 -2.4501891 -0.53250289
0.60670763 -2.349215 -0.48802447
0.44989008 -2.278502 -0.61007571
0.51726699 -2.1912694 -0.56843066
0.86280233 -2.5069845 -0.52366948
0.91130859 -2.356252 -0.46213019
0.70408237 -2.1779497 -0.55646402
0.80529201 -2.209831 -0.55561292
1.0391607 -11.084448 -1.8389664
0.4309305 -3.0523624 -0.38216993
0.23246737 -3.0034409 -0.54607618
0.32640949 -2.76036 -0.4782598
0.70750678 -3.2671366 -0.39688909
0.89533496 -3.4542854 -0.40348807
0.50999075 -2.595458 -0.42368385
0.57415688 -2.4415252 -0.37132025
1.5331718 -11.317062 -1.1929063
1.9594445 -11.68259 -1.1781801
13.138337 -47.595501 0.59985375
13.865032 -43.719563 0.84146178
2.3385434 -11.000752 -1.0497403
2.805974 -11.249468 -1.0065911
2.1756833 -10.949611 -1.4149199
2.5604012 -10.921714 -1.3678666
3.1775978 -11.448148 -1.3995494
4.8609524 -15.379037 -1.8744998
13.832061 -55.168152 -1.7507664
12.832218 -38.76091 -0.69300443
12.007998 -90.454582 1.992515
14.656184 -84.95089 2.4079051
5.7689381 -48.202492 -0.58392096
13.849998 -87.243378 -0.61577129
17.755423 -84.486382 2.8237636
20.828829 -83.327255 3.3542542
16.635532 -85.09697 -0.19328524
12.017919 -51.041565 0.27745008
0.19051789 -2.0138216 -0.66434294
0.34311616 -2.6238143 -0.89410686
0.65758663 -2.0449867 -0.28082252
0.92855042 -2.585187 -0.36561447
0.51338035 -2.36569 -0.78633904
0.61552554 -2.3869009 -0.77875757
0.45147213 -2.3276792 -0.9036262
0.51142991 -2.2021897 -0.83112937
0.82113075 -2.3773532 -0.76792943
0.88298738 -2.2680323 -0.71204209
0.71108216 -2.1924973 -0.8257761
0.81875861 -2.2332542 -0.83427453
0.2173671 -2.2542067 -0.50259668
0.33643642 -2.4822943 -0.55150223
0.16531333 -2.3313243 -0.65038246
0.24514227 -2.2246566 -0.60350311
0.51602399 -2.3876312 -0.51448238
0.59982175 -2.3529773 -0.48853749
0.45159179 -2.3284385 -0.62650353
0.52667373 -2.2594006 -0.59065694
0.81305611 -2.3827167 -0.48945171
0.82252127 -2.15308 -0.40813303
0.69106948 -2.1600842 -0.54988337
0.80102289 -2.2195201 -0.55794162
1.0060627 -11.107271 -1.8424796
0.43477541 -3.1453667 -0.39807209
0.23514025 -3.188848 -0.58899963
0.35100424 -3.0284746 -0.5392952
0.69327188 -3.250005 -0.39368218
0.9126969 -3.5641222 -0.42051581
0.49725944 -2.5720558 -0.41816261
0.58727396 -2.5289438 -0.38964373
1.5068192 -11.392682 -1.2017285
1.8681732 -11.361496 -1.1391251
12.97404 -47.582512 0.59940708
22.483377 -71.620506 1.246299
2.2983344 -10.980797 -1.0466087
2.6857238 -10.916567 -0.96948779
2.1423981 -10.96222 -1.4157889
2.5247252 -10.92392 -1.3670264
1.0755501 -3.6619961 -0.16879156
3.065721 -11.178877 -1.3601494
12.200583 -49.328945 -1.5419245
16.014587 -55.977131 -1.4976728
12.845094 -39.211384 -0.70253748
11.682234 -90.170601 1.9861698
14.610882 -86.303421 2.441782
17.670271 -85.414909 2.8508141
20.617733 -83.597961 3.3620245
11.458285 -59.565971 -0.07305491
11.159547 -48.079197 0.27328128
0.18447942 -2.0180945 -0.66587299
0.29062361 -2.3032515 -0.7633484
1.0702777 -3.4220183 -0.56880736
0.90148962 -2.5364058 -0.35531563
0.49560884 -2.3162494 -0.76574969
0.54904568 -2.1669259 -0.69044232
0.44897527 -2.3559487 -0.91608417
0.50408083 -2.2020097 -0.83031464
0.82541835 -2.415518 -0.78187752
0.88072741 -2.28303 -0.71679544
0.70256859 -2.1894617 -0.82338488
0.79814607 -2.1996162 -0.81787747
0.20950261 -2.245311 -0.49979365
0.31447941 -2.3842793 -0.52317005
0.15638812 -2.3035522 -0.64049941
0.23547444 -2.2028737 -0.59571421
0.49593535 -2.3268571 -0.49699181
0.59488499 -2.3641977 -0.49110258
0.40642107 -2.1187878 -0.55510604
0.53789115 -2.3368571 -0.61597008
0.92576021 -2.7536561 -0.58863354
0.7945078 -2.1013699 -0.39392328
0.683725 -2.1604187 -0.54928517
0.81262946 -2.2722743 -0.57424295
0.95447528 -10.914196 -1.8073479
0.42629048 -3.1564734 -0.39976385
0.2196596 -3.1020679 -0.56866741
0.34078318 -3.0237536 -0.53796834
2.2397847 -10.963479 -1.6716379
0.85021216 -3.3699312 -0.38919696
0.50750762 -2.6755528 -0.44067243
0.56792539 -2.4831698 -0.37946403
1.4660289 -11.357977 -1.1968272
1.8577948 -11.522169 -1.1576002
12.967746 -48.156097 0.60380995
13.655363 -44.015877 0.84451157
2.2792919 -11.063916 -1.0553322
2.7035084 -11.137447 -0.99254632
2.110532 -10.982506 -1.4178169
2.4943941 -10.949164 -1.3695474
1.0385786 -3.5753613 -0.15938942
3.0531955 -11.272666 -1.3720233
11.762571 -48.209835 -1.5008725
12.999429 -45.966614 -1.191293
12.810795 -39.525394 -0.70889276
11.36589 -89.944977 1.9809996
14.209749 -85.567886 2.4215481
3.9094296 -34.43512 -0.35740077
20.372982 -83.736107 3.3648098
16.330784 -86.420265 -0.19901749
13.634258 -59.562744 0.28917953
0.17813864 -2.0186641 -0.66587299
0.2754803 -2.245316 -0.73943835
0.94351453 -3.0404541 -0.48826587
0.92636788 -2.6297789 -0.3733387
0.47960731 -2.2740176 -0.74810165
0.54460472 -2.1776683 -0.69403249
0.43873164 -2.3412209 -0.90860939
0.45618123 -2.0312133 -0.75128579
0.85335422 -2.5267823 -0.82441932
0.87493128 -2.2892852 -0.7181536
0.70746058 -2.2302577 -0.84092015
0.79315758 -2.2072899 -0.82021993
0.19989288 -2.2134216 -0.49026346
0.30112979 -2.3433266 -0.51118326
0.15146817 -2.3474026 -0.6556536
0.22963905 -2.2129982 -0.59895957
0.4908756 -2.3397534 -0.5001719
0.58696908 -2.3641837 -0.49058956
0.403054 -2.1387422 -0.56142437
0.50364774 -2.2256551 -0.578309
0.97186154 -2.9261866 -0.6342572
0.79071224 -2.1111021 -0.39581788
0.68681979 -2.1954551 -0.56005347
0.77719086 -2.1975594 -0.54920888
0.28906775 -3.21106 -0.42772561
0.42102391 -3.1909826 -0.4055157
0.20922183 -3.091073 -0.56595647
0.34593254 -3.1487772 -0.56627458
2.1980255 -10.933671 -1.6655447
0.84896713 -3.4089625 -0.3949742
0.59085304 -3.1967795 -0.55534482
0.56597227 -2.5097158 -0.38475752
1.4479407 -11.358296 -1.1965822
1.8158844 -11.378016 -1.1400604
12.908602 -48.238239 0.60432047
13.587392 -44.041092 0.84456694
2.2666323 -11.090858 -1.0580165
2.6864817 -11.143613 -0.99275601
2.0859611 -10.946911 -1.4120227
2.4604235 -10.879711 -1.3589031
4.3176494 -15.256749 -1.3790697
3.0227153 -11.229579 -1.3652768
13.041684 -46.395039 -1.2037146
12.870405 -39.922192 -0.71763134
10.89732 -87.333519 1.9291031
14.082153 -85.631523 2.422621
3.8800857 -34.663815 -0.36105329
12.62447 -83.774147 -0.58208251
17.362026 -85.965569 2.8653097
20.269636 -83.88456 3.3692081
15.974408 -85.266281 -0.19347909
11.589148 -51.013466 0.27728224
0.17877325 -2.0705423 -0.68729401
0.26853472 -2.2199996 -0.72897762
0.90552431 -2.9311013 -0.46508569
0.9522748 -2.7144396 -0.38989043
0.47423202 -2.265645 -0.744425
0.54259646 -2.1839397 -0.69618642
0.43818122 -2.3598299 -0.91691458
0.43032759 -1.9359334 -0.70729029
0.83663237 -2.4889021 -0.80907631
0.86927205 -2.2854035 -0.71611643
0.73696589 -2.3401978 -0.89033759
0.78841126 -2.2050793 -0.81865823
0.19803618 -2.2347884 -0.49643004
0.30929586 -2.4295785 -0.53570163
0.15130158 -2.4155271 -0.67937309
0.2259485 -2.2114766 -0.59831047
0.53189409 -2.5675833 -0.56377393
0.59049779 -2.3931799 -0.49828494
0.40295601 -2.158066 -0.56774276
0.49182791 -2.1912708 -0.56657845
0.88493681 -2.6712823 -0.56532574
0.78879476 -2.1159673 -0.39676523
0.71450984 -2.3007593 -0.59415293
0.76718587 -2.1808002 -0.543387
0.27897963 -3.1487074 -0.41648346
0.40843564 -3.1369691 -0.39604208
0.15039901 -2.1558232 -0.34862852
0.35182786 -3.24231 -0.58750427
2.1564314 -10.813148 -1.6450205
0.88076597 -3.5558577 -0.41808328
0.47165486 -2.5450795 -0.41136727
0.56024128 -2.5029759 -0.3831287
1.4151341 -11.386434 -1.199523
1.8411458 -11.768166 -1.1858975
12.735065 -48.195404 0.60363448
22.586081 -73.973152 1.2778776
2.2093115 -10.984862 -1.045043
2.6672511 -11.217753 -0.99988317
0.62722093 -3.2494841 -0.26506975
2.4149151 -10.837157 -1.3516201
0.9593907 -3.3558865 -0.13598402
2.9455233 -11.079963 -1.3428781
4.7251992 -15.54156 -1.8894219
12.484254 -52.226231 -1.6412483
12.899601 -46.449268 -1.2041247
12.920235 -40.51096 -0.73034203
10.611341 -87.272049 1.9272232
13.784686 -85.49968 2.4180734
3.7651529 -34.620167 -0.36014014
17.185234 -86.490311 2.8798659
19.665949 -82.522827 3.3154767
11.486115 -62.352898 -0.085719474
11.179657 -49.939236 0.27574193
0.16979516 -2.0360713 -0.67275834
0.25989011 -2.2079537 -0.72374731
0.87124491 -2.8493207 -0.44740587
0.9596234 -2.7618463 -0.39871812
0.46249887 -2.2433891 -0.73486567
0.53154492 -2.169364 -0.68972439
0.42861551 -2.3486421 -0.91110098
0.42507163 -1.9408338 -0.70891976
0.7828868 -2.3487659 -0.75328398
0.86822522 -2.3039019 -0.72222793
0.71749181 -2.3020904 -0.87200522
0.7846483 -2.2161896 -0.82256234
0.19016662 -2.2239115 -0.49306637
0.30423427 -2.4496093 -0.54115009
0.14187473 -2.3782682 -0.66619563
0.21899976 -2.2121756 -0.59831047
0.50513339 -2.4726813 -0.5367431
0.60968679 -2.4999292 -0.52701426
0.39905688 -2.1761541 -0.57342923
0.49877343 -2.2520874 -0.58633518
0.77625155 -2.3582723 -0.48052531
0.79671609 -2.1565487 -0.40671206
0.72133267 -2.3505805 -0.60970706
0.75513417 -2.1688015 -0.53872937
0.26923761 -3.1515315 -0.41683477
0.42131868 -3.3062258 -0.4251397
0.14627762 -2.2049203 -0.35992411
0.25438765 -2.473989 -0.41191697
2.1502323 -10.963289 -1.6687517
0.84013635 -3.4416783 -0.39953521
0.46266457 -2.5407703 -0.4100931
0.56031418 -2.5390644 -0.39045817
1.385209 -11.4401 -1.2056496
1.7974524 -11.730711 -1.1807526
12.42337 -47.619705 0.59856153
22.78059 -75.456474 1.2983385
2.1816523 -11.02686 -1.0490692
2.6072435 -11.121564 -0.98856354
0.61382616 -3.2339151 -0.26246235
2.386436 -10.869823 -1.3552616
2.9102008 -11.087243 -1.3426082
11.934103 -50.631165 -1.5833898
12.760999 -46.516556 -1.204945
12.91405 -40.934555 -0.73921299
10.304042 -87.02494 1.9217006
13.526325 -85.607727 2.4197595
5.3683825 -50.964149 -0.62794662
6.9487009 -48.239712 -0.24683501
16.952095 -86.742035 2.8859918
19.405222 -82.578369 3.3152566
15.353063 -84.892609 -0.19126368
13.136245 -59.533237 0.28899273
0.16290045 -2.0292199 -0.66969824
0.25039342 -2.1885133 -0.71552831
0.79780734 -2.6318502 -0.40143824
0.80467802 -2.3515739 -0.31669474
0.45230669 -2.228389 -0.72824764
0.52748483 -2.1818783 -0.69403249
0.41942585 -2.3392115 -0.9061178
0.42142317 -1.952841 -0.71380818
0.75276732 -2.2797654 -0.72538781
0.87112939 -2.3329487 -0.73241401
0.73580295 -2.3905072 -0.91106081
0.78396463 -2.2359517 -0.83037049
0.1838553 -2.2340736 -0.49586946
0.28497785 -2.3627903 -0.51608694
0.1337148 -2.3636107 -0.66092449
0.21771783 -2.2655175 -0.61648464
0.48077706 -2.3871095 -0.5123623
0.5862841 -2.4399631 -0.51008451
0.3815276 -2.1137714 -0.55194676
0.48998988 -2.246227 -0.58386552
0.78684008 -2.4180026 -0.49589854
0.87114954 -2.3734627 -0.46260381
0.72303605 -2.3839779 -0.61987704
0.7521804 -2.1819739 -0.54222256
0.25933537 -3.1523619 -0.41683477
0.37115401 -3.0065897 -0.37303463
0.13435113 -2.1080825 -0.33733284
0.24383612 -2.4495726 -0.40616733
2.0943568 -10.857512 -1.6501516
0.82264405 -3.4174433 -0.3952783
0.47903264 -2.6867528 -0.44194654
0.55712026 -2.5618126 -0.39493722
1.3431079 -11.391156 -1.1990329
1.7534156 -11.689173 -1.1751399
12.250813 -47.569397 0.59782773
22.565186 -75.600479 1.299392
2.149251 -11.045371 -1.0504112
2.5609844 -11.081278 -0.98332286
0.60470635 -3.2416718 -0.2633315
2.3526993 -10.879201 -1.3555416
2.814748 -10.860236 -1.309415
4.037076 -34.668175 -1.5943273
11.104368 -47.789227 -1.4815174
13.1679 -48.602055 -1.267053
12.877884 -41.270725 -0.74605381
10.025351 -87.011192 1.9207997
13.52881 -87.400291 2.4650307
6.8024392 -48.298927 -0.24718904
16.456512 -85.632614 2.8500865
19.156544 -82.685638 3.3170161
11.651708 -65.568748 -0.10046095
12.941494 -59.53904 0.28894401
0.15676187 -2.0334096 -0.67122829
0.24487796 -2.2003362 -0.72001135
0.73719501 -2.4535069 -0.36372131
0.80248708 -2.3689322 -0.31963724
0.44290042 -2.2170033 -0.7231003
0.54514068 -2.2812989 -0.73280495
0.41148341 -2.3369272 -0.90445685
0.41528618 -1.9541554 -0.71380818
0.7349084 -2.248147 -0.71213704
0.87117612 -2.3550065 -0.73988366
0.78451604 -2.5846784 -0.99793983
0.77444518 -2.2314727 -0.82724726
0.17657752 -2.2308092 -0.49474823
0.2728931 -2.3274093 -0.50573474
0.12700896 -2.3809991 -0.66685444
0.20568572 -2.2191527 -0.60025775
0.46228281 -2.3298442 -0.49593168
0.56559056 -2.3892574 -0.49571979
0.37550241 -2.1187043 -0.5532105
0.49681085 -2.3089781 -0.60423958
0.82522941 -2.568486 -0.53557122
0.87733942 -2.4125733 -0.47207695
0.67374861 -2.2413805 -0.5726164
0.74596024 -2.18613 -0.54280478
0.24943082 -3.153161 -0.41683477
0.33674476 -2.8141975 -0.33953848
0.13148233 -2.1863356 -0.3554059
0.24236743 -2.5085084 -0.41943586
2.056968 -10.846574 -1.6472653
0.81519967 -3.43345 -0.39740679
0.47313893 -2.7036705 -0.4453443
0.55636346 -2.5960288 -0.40185946
1.3243901 -11.547202 -1.2179028
1.707607 -11.633721 -1.1678901
12.125399 -47.702637 0.59860939
22.320204 -75.646072 1.2990316
2.1366777 -11.169242 -1.063832
2.5404372 -11.151294 -0.99003088
0.59008074 -3.2182155 -0.25956529
2.3335221 -10.956231 -1.3656259
3.1107528 -11.519074 -0.98457909
2.8044643 -10.963156 -1.3226384
10.968491 -47.886219 -1.4837215
12.607209 -47.115391 -1.2207065
9.7888031 -87.372154 1.9273015
13.236751 -87.327728 2.4620671
4.7007923 -47.470409 -0.5701589
16.587933 -87.807449 2.9156504
18.935448 -82.914932 3.3233933
8.7362623 -50.039238 -0.027538139
11.534486 -53.892788 0.28107205
0.15172577 -2.0560253 -0.68040866
0.23707989 -2.193727 -0.71702254
0.73595494 -2.4784358 -0.36843592
0.80148309 -2.3900149 -0.32331544
0.43492031 -2.2128966 -0.72089428
0.57114184 -2.4170921 -0.78593767
0.40733191 -2.3579657 -0.91359258
0.40914491 -1.9554507 -0.71380818
0.70332587 -2.1716962 -0.6814512
0.86510402 -2.3612514 -0.74124181
0.64269137 -2.1255126 -0.78911155
0.77545679 -2.2564459 -0.83739787
0.16919856 -2.2256052 -0.49306637
0.26581919 -2.3301647 -0.50627959
0.11989857 -2.3908212 -0.67014879
0.19833162 -2.2160234 -0.59895957
0.46437445 -2.3824966 -0.51024222
0.55119228 -2.3628569 -0.48802447
0.37035769 -2.12924 -0.55636966
0.49619079 -2.3402326 -0.61411798
0.83764207 -2.6377416 -0.55342394
0.87449354 -2.4280679 -0.47539258
0.65519148 -2.2031097 -0.55945522
0.74984246 -2.2191613 -0.55270195
0.78450584 -11.206038 -1.8568836
0.32814792 -2.8171976 -0.33987683
0.14128506 -2.5565381 -0.44125268
0.23650047 -2.5286582 -0.4238587
0.54640615 -2.8266358 -0.32152662
0.81231004 -3.4686568 -0.40257588
0.44151139 -2.5623808 -0.41391549
0.55412787 -2.6245303 -0.40756011
1.2874597 -11.545385 -1.2171676
1.6684703 -11.621339 -1.1657853
22.125601 -75.863625 1.3011664
2.0841618 -11.082106 -1.0530956
2.5379601 -11.302755 -1.005543
1.9087267 -10.949072 -1.4076772
2.2785432 -10.866648 -1.3516201
3.0735316 -11.524941 -0.9841789
2.7733727 -10.98537 -1.3245274
11.53095 -51.070854 -1.5950303
12.461674 -47.164421 -1.2209994
14.06321 -46.075626 -0.85510939
9.5261335 -87.511803 1.9294558
12.92617 -87.125618 2.4557822
4.7089148 -49.135239 -0.59719384
6.7099075 -49.904465 -0.26189059
15.840897 -85.317612 2.8372281
18.99918 -84.41291 3.3774915
8.553421 -49.916611 -0.026836621
11.954968 -56.721134 0.28493494
0.14783256 -2.1007669 -0.69876933
0.23126316 -2.2036746 -0.72075862
0.72923166 -2.4845099 -0.36922169
0.82206005 -2.4743321 -0.33949941
0.42630675 -2.205102 -0.71721774
0.59850764 -2.5621371 -0.84266055
0.41358131 -2.4454906 -0.95345747
0.40143275 -1.9495901 -0.71054929
0.71139175 -2.2222655 -0.7002812
0.83458668 -2.3022988 -0.71747446
0.64358228 -2.1539736 -0.80106747
0.76897585 -2.260607 -0.83817858
0.16091648 -2.2050471 -0.48689985
0.26153019 -2.3558204 -0.51336265
0.11068278 -2.3440077 -0.65367693
0.1913687 -2.2166357 -0.59895957
